186.01306152 1236.00000000 -7.52654028
188.77244568 1240.00000000 -7.55089808
191.69972229 1245.00000000 -7.58134508
193.86582947 1245.00000000 -7.58134508
196.66174316 1249.00000000 -7.60570288
200.42675781 1259.00000000 -7.66659737
203.26095581 1263.00000000 -7.69095516
206.27174377 1268.00000000 -7.72140217
208.47785950 1268.00000000 -7.72140217
211.34858704 1272.00000000 -7.74575996
214.40113831 1277.00000000 -7.77620697
216.62290955 1277.00000000 -7.77620697
219.70155334 1282.00000000 -7.80665445
222.79759216 1287.00000000 -7.83710146
225.73619080 1291.00000000 -7.86145926
228.86528015 1296.00000000 -7.89190626
232.01177979 1301.00000000 -7.92235327
235.17567444 1306.00000000 -7.95280075
238.35696411 1311.00000000 -7.98324776
240.63789368 1311.00000000 -7.98324776
243.84529114 1316.00000000 -8.01369476
247.07008362 1321.00000000 -8.04414177
250.31227112 1326.00000000 -8.07458973
254.52441406 1336.00000000 -8.13548374
256.84884644 1336.00000000 -8.13548374
260.33721924 1342.00000000 -8.17201996
262.67208862 1342.00000000 -8.17201996
18.81113052 1272.00000000 -9.95883465
20.95809174 1268.00000000 -9.92751694
23.07286453 1263.00000000 -9.88837051
25.27028084 1263.00000000 -9.88837051
27.38070488 1259.00000000 -9.85705376
29.57116127 1259.00000000 -9.85705376
31.63547897 1254.00000000 -9.81790733
33.81723785 1254.00000000 -9.81790733
35.85545731 1249.00000000 -9.77876091
37.90672684 1245.00000000 -9.74744415
40.07282639 1245.00000000 -9.74744415
42.06929016 1240.00000000 -9.70829773
44.08402252 1236.00000000 -9.67698002
46.23446274 1236.00000000 -9.67698002
48.22831726 1232.00000000 -9.64566326
50.37179565 1232.00000000 -9.64566326
52.30214691 1227.00000000 -9.60651684
54.25946426 1223.00000000 -9.57520008
56.38728714 1223.00000000 -9.57520008
58.32372665 1219.00000000 -9.54388237
60.19666290 1214.00000000 -9.50473595
62.30882645 1214.00000000 -9.50473595
64.42098999 1214.00000000 -9.50473595
66.31393433 1210.00000000 -9.47341919
68.41913605 1210.00000000 -9.47341919
70.29120636 1206.00000000 -9.44210243
72.14935303 1202.00000000 -9.41078472
74.24063873 1202.00000000 -9.41078472
76.33192444 1202.00000000 -9.41078472
78.42321014 1202.00000000 -9.41078472
80.17957306 1197.00000000 -9.37163830
82.26216125 1197.00000000 -9.37163830
84.34474945 1197.00000000 -9.37163830
86.42733765 1197.00000000 -9.37163830
88.21414948 1193.00000000 -9.34032154
90.28977966 1193.00000000 -9.34032154
92.36540222 1193.00000000 -9.34032154
94.44103241 1193.00000000 -9.34032154
96.19304657 1189.00000000 -9.30900478
98.26171875 1189.00000000 -9.30900478
100.33038330 1189.00000000 -9.30900478
102.05456543 1185.00000000 -9.27768707
104.11627197 1185.00000000 -9.27768707
106.17797852 1185.00000000 -9.27768707
107.87432098 1181.00000000 -9.24637032
110.30139923 1185.00000000 -9.27768707
112.74238586 1189.00000000 -9.30900478
114.81105804 1189.00000000 -9.30900478
117.27292633 1193.00000000 -9.34032154
119.34855652 1193.00000000 -9.34032154
121.42417908 1193.00000000 -9.34032154
123.91388702 1197.00000000 -9.37163830
125.99647522 1197.00000000 -9.37163830
128.07905579 1197.00000000 -9.37163830
129.72668457 1193.00000000 -9.34032154
131.80232239 1193.00000000 -9.34032154
133.87794495 1193.00000000 -9.34032154
135.95356750 1193.00000000 -9.34032154
138.02920532 1193.00000000 -9.34032154
140.10482788 1193.00000000 -9.34032154
141.70373535 1189.00000000 -9.30900478
143.77239990 1189.00000000 -9.30900478
146.33171082 1193.00000000 -9.34032154
148.40733337 1193.00000000 -9.34032154
150.48295593 1193.00000000 -9.34032154
152.55859375 1193.00000000 -9.34032154
155.15267944 1197.00000000 -9.37163830
157.89205933 1202.00000000 -9.41078472
160.51573181 1206.00000000 -9.44210243
163.15333557 1210.00000000 -9.47341919
165.25852966 1210.00000000 -9.47341919
167.91700745 1214.00000000 -9.50473595
170.02917480 1214.00000000 -9.50473595
172.85032654 1219.00000000 -9.54388237
175.54533386 1223.00000000 -9.57520008
178.25425720 1227.00000000 -9.60651684
181.12411499 1232.00000000 -9.64566326
183.86262512 1236.00000000 -9.67698002
186.61505127 1240.00000000 -9.70829773
188.77244568 1240.00000000 -9.70829773
191.69972229 1245.00000000 -9.74744415
194.48869324 1249.00000000 -9.77876091
197.44902039 1254.00000000 -9.81790733
200.42675781 1259.00000000 -9.85705376
203.26095581 1263.00000000 -9.88837051
206.27174377 1268.00000000 -9.92751694
209.13551331 1272.00000000 -9.95883465
211.34858704 1272.00000000 -9.95883465
214.40113831 1277.00000000 -9.99798012
217.47108459 1282.00000000 -10.03712654
219.70155334 1282.00000000 -10.03712654
222.79759216 1287.00000000 -10.07627296
225.73619080 1291.00000000 -10.10759068
229.74824524 1301.00000000 -10.18588352
232.90344238 1306.00000000 -10.22502899
236.07604980 1311.00000000 -10.26417542
238.35696411 1311.00000000 -10.26417542
241.55566406 1316.00000000 -10.30332184
243.84529114 1316.00000000 -10.30332184
247.07008362 1321.00000000 -10.34246826
249.36840820 1321.00000000 -10.34246826
254.52441406 1336.00000000 -10.45990753
18.88507462 1277.00000000 -12.21975422
20.95809174 1268.00000000 -12.13363171
23.16420746 1268.00000000 -12.13363171
25.27028084 1263.00000000 -12.08578682
27.46769714 1263.00000000 -12.08578682
29.57116127 1259.00000000 -12.04751015
31.76161766 1259.00000000 -12.04751015
33.81723785 1254.00000000 -11.99966431
35.99899292 1254.00000000 -11.99966431
38.02851486 1249.00000000 -11.95181847
40.07282639 1245.00000000 -11.91354275
42.06929016 1240.00000000 -11.86569691
44.22668839 1240.00000000 -11.86569691
46.23446274 1236.00000000 -11.82742023
48.38490295 1236.00000000 -11.82742023
50.37179565 1232.00000000 -11.78914356
52.51527786 1232.00000000 -11.78914356
54.43692780 1227.00000000 -11.74129868
56.38728714 1223.00000000 -11.70302200
58.32372665 1219.00000000 -11.66474533
60.19666290 1214.00000000 -11.61690044
62.30882645 1214.00000000 -11.61690044
64.42098999 1214.00000000 -11.61690044
66.31393433 1210.00000000 -11.57862377
68.41913605 1210.00000000 -11.57862377
70.29120636 1206.00000000 -11.54034710
72.14935303 1202.00000000 -11.50207043
74.24063873 1202.00000000 -11.50207043
76.33192444 1202.00000000 -11.50207043
78.42321014 1202.00000000 -11.50207043
80.17957306 1197.00000000 -11.45422554
82.26216125 1197.00000000 -11.45422554
84.34474945 1197.00000000 -11.45422554
86.42733765 1197.00000000 -11.45422554
88.21414948 1193.00000000 -11.41594887
90.28977966 1193.00000000 -11.41594887
92.36540222 1193.00000000 -11.41594887
94.12438202 1189.00000000 -11.37767220
96.19304657 1189.00000000 -11.37767220
97.93114471 1185.00000000 -11.33939552
99.99285126 1185.00000000 -11.33939552
101.71007538 1181.00000000 -11.30111980
104.11627197 1185.00000000 -11.33939552
105.81957245 1181.00000000 -11.30111980
108.23968506 1185.00000000 -11.33939552
110.30139923 1185.00000000 -11.33939552
112.36310577 1185.00000000 -11.33939552
114.42481232 1185.00000000 -11.33939552
116.87972260 1189.00000000 -11.37767220
118.94839478 1189.00000000 -11.37767220
121.42417908 1193.00000000 -11.41594887
123.49980927 1193.00000000 -11.41594887
125.57543945 1193.00000000 -11.41594887
127.65106201 1193.00000000 -11.41594887
129.29173279 1189.00000000 -11.37767220
131.36039734 1189.00000000 -11.37767220
133.42906189 1189.00000000 -11.37767220
135.49772644 1189.00000000 -11.37767220
137.56640625 1189.00000000 -11.37767220
139.63507080 1189.00000000 -11.37767220
141.70373535 1189.00000000 -11.37767220
143.77239990 1189.00000000 -11.37767220
145.84106445 1189.00000000 -11.37767220
147.90974426 1189.00000000 -11.37767220
150.48295593 1193.00000000 -11.41594887
152.55859375 1193.00000000 -11.41594887
155.15267944 1197.00000000 -11.45422554
157.89205933 1202.00000000 -11.50207043
160.51573181 1206.00000000 -11.54034710
163.15333557 1210.00000000 -11.57862377
165.80484009 1214.00000000 -11.61690044
167.91700745 1214.00000000 -11.61690044
170.72946167 1219.00000000 -11.66474533
173.41751099 1223.00000000 -11.70302200
175.54533386 1223.00000000 -11.70302200
178.25425720 1227.00000000 -11.74129868
181.12411499 1232.00000000 -11.78914356
183.86262512 1236.00000000 -11.82742023
186.61505127 1240.00000000 -11.86569691
189.53363037 1245.00000000 -11.91354275
191.69972229 1245.00000000 -11.91354275
194.48869324 1249.00000000 -11.95181847
197.44902039 1254.00000000 -11.99966431
200.42675781 1259.00000000 -12.04751015
203.26095581 1263.00000000 -12.08578682
206.27174377 1268.00000000 -12.13363171
209.13551331 1272.00000000 -12.17190838
211.34858704 1272.00000000 -12.17190838
214.40113831 1277.00000000 -12.21975422
217.47108459 1282.00000000 -12.26759911
220.55842590 1287.00000000 -12.31544495
223.49005127 1291.00000000 -12.35372162
226.61045837 1296.00000000 -12.40156746
229.74824524 1301.00000000 -12.44941235
232.90344238 1306.00000000 -12.49725819
236.07604980 1311.00000000 -12.54510403
239.26603699 1316.00000000 -12.59294891
241.55566406 1316.00000000 -12.59294891
244.77175903 1321.00000000 -12.64079475
247.07008362 1321.00000000 -12.64079475
250.31227112 1326.00000000 -12.68864059
252.61929321 1326.00000000 -12.68864059
18.88507462 1277.00000000 -14.44152737
20.95809174 1268.00000000 -14.33974648
23.16420746 1268.00000000 -14.33974648
25.37032127 1268.00000000 -14.33974648
27.57643700 1268.00000000 -14.33974648
29.66511154 1263.00000000 -14.28320217
31.86252785 1263.00000000 -14.28320217
33.95207214 1259.00000000 -14.23796654
36.14252853 1259.00000000 -14.23796654
38.18075180 1254.00000000 -14.18142128
40.20157242 1249.00000000 -14.12487698
42.23892212 1245.00000000 -14.07964134
44.40502167 1245.00000000 -14.07964134
46.38408661 1240.00000000 -14.02309608
48.38490295 1236.00000000 -13.97786045
50.53534317 1236.00000000 -13.97786045
52.51527786 1232.00000000 -13.93262482
54.43692780 1227.00000000 -13.87607956
56.57171249 1227.00000000 -13.87607956
58.32372665 1219.00000000 -13.78560829
60.19666290 1214.00000000 -13.72906399
62.30882645 1214.00000000 -13.72906399
64.42098999 1214.00000000 -13.72906399
66.31393433 1210.00000000 -13.68382740
68.41913605 1210.00000000 -13.68382740
70.29120636 1206.00000000 -13.63859177
72.14935303 1202.00000000 -13.59335613
74.24063873 1202.00000000 -13.59335613
76.33192444 1202.00000000 -13.59335613
78.09699249 1197.00000000 -13.53681183
80.17957306 1197.00000000 -13.53681183
82.26216125 1197.00000000 -13.53681183
84.34474945 1197.00000000 -13.53681183
86.13851929 1193.00000000 -13.49157619
88.21414948 1193.00000000 -13.49157619
90.28977966 1193.00000000 -13.49157619
92.05570984 1189.00000000 -13.44633961
94.12438202 1189.00000000 -13.44633961
95.86943817 1185.00000000 -13.40110397
97.93114471 1185.00000000 -13.40110397
99.99285126 1185.00000000 -13.40110397
101.71007538 1181.00000000 -13.35586834
103.76482391 1181.00000000 -13.35586834
105.81957245 1181.00000000 -13.35586834
107.87432098 1181.00000000 -13.35586834
109.92906952 1181.00000000 -13.35586834
112.36310577 1185.00000000 -13.40110397
114.42481232 1185.00000000 -13.40110397
116.48651886 1185.00000000 -13.40110397
118.54822540 1185.00000000 -13.40110397
121.01705933 1189.00000000 -13.44633961
123.08572388 1189.00000000 -13.44633961
125.15439606 1189.00000000 -13.44633961
127.22306061 1189.00000000 -13.44633961
128.85676575 1185.00000000 -13.40110397
131.36039734 1189.00000000 -13.44633961
133.42906189 1189.00000000 -13.44633961
135.49772644 1189.00000000 -13.44633961
137.56640625 1189.00000000 -13.44633961
139.63507080 1189.00000000 -13.44633961
141.22702026 1185.00000000 -13.40110397
143.77239990 1189.00000000 -13.44633961
145.84106445 1189.00000000 -13.44633961
148.40733337 1193.00000000 -13.49157619
150.48295593 1193.00000000 -13.49157619
152.55859375 1193.00000000 -13.49157619
155.15267944 1197.00000000 -13.53681183
157.89205933 1202.00000000 -13.59335613
160.51573181 1206.00000000 -13.63859177
163.15333557 1210.00000000 -13.68382740
165.80484009 1214.00000000 -13.72906399
168.60859680 1219.00000000 -13.78560829
171.28968811 1223.00000000 -13.83084393
173.41751099 1223.00000000 -13.83084393
175.54533386 1223.00000000 -13.83084393
178.25425720 1227.00000000 -13.87607956
181.12411499 1232.00000000 -13.93262482
183.86262512 1236.00000000 -13.97786045
186.61505127 1240.00000000 -14.02309608
189.53363037 1245.00000000 -14.07964134
192.31562805 1249.00000000 -14.12487698
195.26727295 1254.00000000 -14.18142128
198.23629761 1259.00000000 -14.23796654
200.42675781 1259.00000000 -14.23796654
203.26095581 1263.00000000 -14.28320217
206.27174377 1268.00000000 -14.33974648
209.13551331 1272.00000000 -14.38498306
212.17936707 1277.00000000 -14.44152737
214.40113831 1277.00000000 -14.44152737
217.47108459 1282.00000000 -14.49807262
220.55842590 1287.00000000 -14.55461693
223.49005127 1291.00000000 -14.59985256
226.61045837 1296.00000000 -14.65639782
230.63122559 1306.00000000 -14.76948738
232.90344238 1306.00000000 -14.76948738
236.07604980 1311.00000000 -14.82603168
239.26603699 1316.00000000 -14.88257599
241.55566406 1316.00000000 -14.88257599
244.77175903 1321.00000000 -14.93912125
247.07008362 1321.00000000 -14.93912125
250.31227112 1326.00000000 -14.99566555
253.57185364 1331.00000000 -15.05221081
18.88507462 1277.00000000 -16.66330147
21.02420616 1272.00000000 -16.59805679
23.23727989 1272.00000000 -16.59805679
25.45035362 1272.00000000 -16.59805679
27.57643700 1268.00000000 -16.54586220
29.78255081 1268.00000000 -16.54586220
31.86252785 1263.00000000 -16.48061752
34.05994415 1263.00000000 -16.48061752
36.14252853 1259.00000000 -16.42842293
38.18075180 1254.00000000 -16.36317825
40.20157242 1249.00000000 -16.29793549
42.37462997 1249.00000000 -16.29793549
44.40502167 1245.00000000 -16.24573898
46.38408661 1240.00000000 -16.18049622
48.54148865 1240.00000000 -16.18049622
50.53534317 1236.00000000 -16.12829971
52.51527786 1232.00000000 -16.07610512
54.43692780 1227.00000000 -16.01086235
56.57171249 1227.00000000 -16.01086235
58.51511002 1223.00000000 -15.95866680
60.44459152 1219.00000000 -15.90647125
62.30882645 1214.00000000 -15.84122753
64.42098999 1214.00000000 -15.84122753
66.31393433 1210.00000000 -15.78903198
68.41913605 1210.00000000 -15.78903198
70.29120636 1206.00000000 -15.73683739
72.38945007 1206.00000000 -15.73683739
74.24063873 1202.00000000 -15.68464184
76.33192444 1202.00000000 -15.68464184
78.09699249 1197.00000000 -15.61939812
80.17957306 1197.00000000 -15.61939812
82.26216125 1197.00000000 -15.61939812
84.34474945 1197.00000000 -15.61939812
86.13851929 1193.00000000 -15.56720257
88.21414948 1193.00000000 -15.56720257
90.28977966 1193.00000000 -15.56720257
92.05570984 1189.00000000 -15.51500797
93.80773163 1185.00000000 -15.46281242
95.86943817 1185.00000000 -15.46281242
97.93114471 1185.00000000 -15.46281242
99.99285126 1185.00000000 -15.46281242
101.71007538 1181.00000000 -15.41061687
103.76482391 1181.00000000 -15.41061687
105.81957245 1181.00000000 -15.41061687
107.87432098 1181.00000000 -15.41061687
109.92906952 1181.00000000 -15.41061687
111.98381805 1181.00000000 -15.41061687
114.03856659 1181.00000000 -15.41061687
116.09331512 1181.00000000 -15.41061687
118.14806366 1181.00000000 -15.41061687
120.60993958 1185.00000000 -15.46281242
122.25756073 1181.00000000 -15.41061687
124.73335266 1185.00000000 -15.46281242
126.36706543 1181.00000000 -15.41061687
128.42181396 1181.00000000 -15.41061687
130.91847229 1185.00000000 -15.46281242
132.98019409 1185.00000000 -15.46281242
135.04190063 1185.00000000 -15.46281242
137.56640625 1189.00000000 -15.51500797
139.63507080 1189.00000000 -15.51500797
141.22702026 1185.00000000 -15.46281242
143.77239990 1189.00000000 -15.51500797
145.84106445 1189.00000000 -15.51500797
147.90974426 1189.00000000 -15.51500797
150.48295593 1193.00000000 -15.56720257
152.55859375 1193.00000000 -15.56720257
155.15267944 1197.00000000 -15.61939812
157.89205933 1202.00000000 -15.68464184
161.04812622 1210.00000000 -15.78903198
163.69268799 1214.00000000 -15.84122753
166.48773193 1219.00000000 -15.90647125
168.60859680 1219.00000000 -15.90647125
171.28968811 1223.00000000 -15.95866680
173.41751099 1223.00000000 -15.95866680
176.11947632 1227.00000000 -16.01086235
178.25425720 1227.00000000 -16.01086235
181.12411499 1232.00000000 -16.07610512
184.45765686 1240.00000000 -16.18049622
187.36753845 1245.00000000 -16.24573898
190.14257812 1249.00000000 -16.29793549
193.08551025 1254.00000000 -16.36317825
196.04583740 1259.00000000 -16.42842293
198.23629761 1259.00000000 -16.42842293
200.42675781 1259.00000000 -16.42842293
203.26095581 1263.00000000 -16.48061752
206.92243958 1272.00000000 -16.59805679
209.13551331 1272.00000000 -16.59805679
212.17936707 1277.00000000 -16.66330147
214.40113831 1277.00000000 -16.66330147
217.47108459 1282.00000000 -16.72854424
220.55842590 1287.00000000 -16.79378891
224.35562134 1296.00000000 -16.91122818
227.48472595 1301.00000000 -16.97647095
231.51419067 1311.00000000 -17.10696030
233.79512024 1311.00000000 -17.10696030
236.97640991 1316.00000000 -17.17220306
240.17509460 1321.00000000 -17.23744774
242.47343445 1321.00000000 -17.23744774
245.69821167 1326.00000000 -17.30269051
18.88507462 1277.00000000 -18.88507462
21.10684776 1277.00000000 -18.88507462
23.32862091 1277.00000000 -18.88507462
25.45035362 1272.00000000 -18.81113052
27.66342735 1272.00000000 -18.81113052
29.78255081 1268.00000000 -18.75197601
31.98866653 1268.00000000 -18.75197601
34.05994415 1263.00000000 -18.67803383
36.14252853 1259.00000000 -18.61887932
38.18075180 1254.00000000 -18.54493523
40.20157242 1249.00000000 -18.47099304
42.37462997 1249.00000000 -18.47099304
44.40502167 1245.00000000 -18.41183853
46.38408661 1240.00000000 -18.33789444
48.54148865 1240.00000000 -18.33789444
50.53534317 1236.00000000 -18.27873993
52.51527786 1232.00000000 -18.21958542
54.65876007 1232.00000000 -18.21958542
56.57171249 1227.00000000 -18.14564323
58.51511002 1223.00000000 -18.08648872
60.44459152 1219.00000000 -18.02733421
62.56545258 1219.00000000 -18.02733421
64.42098999 1214.00000000 -17.95339012
66.53315735 1214.00000000 -17.95339012
68.41913605 1210.00000000 -17.89423561
70.29120636 1206.00000000 -17.83508110
72.38945007 1206.00000000 -17.83508110
74.24063873 1202.00000000 -17.77592659
76.33192444 1202.00000000 -17.77592659
78.42321014 1202.00000000 -17.77592659
80.17957306 1197.00000000 -17.70198441
82.26216125 1197.00000000 -17.70198441
84.34474945 1197.00000000 -17.70198441
86.13851929 1193.00000000 -17.64282990
88.21414948 1193.00000000 -17.64282990
90.28977966 1193.00000000 -17.64282990
92.05570984 1189.00000000 -17.58367538
93.80773163 1185.00000000 -17.52452087
95.86943817 1185.00000000 -17.52452087
97.93114471 1185.00000000 -17.52452087
99.99285126 1185.00000000 -17.52452087
101.71007538 1181.00000000 -17.46536636
103.76482391 1181.00000000 -17.46536636
105.81957245 1181.00000000 -17.46536636
107.87432098 1181.00000000 -17.46536636
109.92906952 1181.00000000 -17.46536636
111.98381805 1181.00000000 -17.46536636
114.03856659 1181.00000000 -17.46536636
116.09331512 1181.00000000 -17.46536636
118.14806366 1181.00000000 -17.46536636
120.20281219 1181.00000000 -17.46536636
122.25756073 1181.00000000 -17.46536636
124.31231689 1181.00000000 -17.46536636
126.36706543 1181.00000000 -17.46536636
128.42181396 1181.00000000 -17.46536636
130.47656250 1181.00000000 -17.46536636
132.98019409 1185.00000000 -17.52452087
135.04190063 1185.00000000 -17.52452087
137.10360718 1185.00000000 -17.52452087
139.63507080 1189.00000000 -17.58367538
141.22702026 1185.00000000 -17.52452087
143.77239990 1189.00000000 -17.58367538
145.84106445 1189.00000000 -17.58367538
147.90974426 1189.00000000 -17.58367538
150.48295593 1193.00000000 -17.64282990
152.55859375 1193.00000000 -17.64282990
155.15267944 1197.00000000 -17.70198441
157.89205933 1202.00000000 -17.77592659
161.04812622 1210.00000000 -17.89423561
163.69268799 1214.00000000 -17.95339012
166.48773193 1219.00000000 -18.02733421
169.16186523 1223.00000000 -18.08648872
171.28968811 1223.00000000 -18.08648872
173.41751099 1223.00000000 -18.08648872
176.11947632 1227.00000000 -18.14564323
178.98063660 1232.00000000 -18.21958542
181.12411499 1232.00000000 -18.21958542
184.45765686 1240.00000000 -18.33789444
187.36753845 1245.00000000 -18.41183853
189.53363037 1245.00000000 -18.41183853
193.08551025 1254.00000000 -18.54493523
195.26727295 1254.00000000 -18.54493523
198.23629761 1259.00000000 -18.61887932
201.06353760 1263.00000000 -18.67803383
203.26095581 1263.00000000 -18.67803383
206.92243958 1272.00000000 -18.81113052
209.95759583 1277.00000000 -18.88507462
213.01013184 1282.00000000 -18.95901680
215.24061584 1282.00000000 -18.95901680
218.31925964 1287.00000000 -19.03296089
221.24392700 1291.00000000 -19.09211540
224.35562134 1296.00000000 -19.16605759
228.35899353 1306.00000000 -19.31394386
231.51419067 1311.00000000 -19.38788795
234.68678284 1316.00000000 -19.46183014
236.97640991 1316.00000000 -19.46183014
240.17509460 1321.00000000 -19.53577423
242.47343445 1321.00000000 -19.53577423
245.69821167 1326.00000000 -19.60971642
18.88507462 1277.00000000 -21.10684776
21.18948936 1282.00000000 -21.18948936
23.32862091 1277.00000000 -21.10684776
25.55039406 1277.00000000 -21.10684776
27.66342735 1272.00000000 -21.02420616
29.78255081 1268.00000000 -20.95809174
31.98866653 1268.00000000 -20.95809174
34.05994415 1263.00000000 -20.87545013
36.25735855 1263.00000000 -20.87545013
38.33298492 1259.00000000 -20.80933571
40.36250687 1254.00000000 -20.72669220
42.37462997 1249.00000000 -20.64405060
44.54768753 1249.00000000 -20.64405060
46.57112122 1245.00000000 -20.57793617
48.54148865 1240.00000000 -20.49529457
50.69888687 1240.00000000 -20.49529457
52.68578339 1236.00000000 -20.42918015
54.65876007 1232.00000000 -20.36306763
56.57171249 1227.00000000 -20.28042412
58.70649338 1227.00000000 -20.28042412
60.64293289 1223.00000000 -20.21431160
62.56545258 1219.00000000 -20.14819717
64.68631744 1219.00000000 -20.14819717
66.53315735 1214.00000000 -20.06555367
68.64531708 1214.00000000 -20.06555367
70.52434540 1210.00000000 -19.99944115
72.38945007 1206.00000000 -19.93332672
74.48769379 1206.00000000 -19.93332672
76.33192444 1202.00000000 -19.86721230
78.42321014 1202.00000000 -19.86721230
80.17957306 1197.00000000 -19.78457069
82.26216125 1197.00000000 -19.78457069
84.06289673 1193.00000000 -19.71845627
86.13851929 1193.00000000 -19.71845627
87.91837311 1189.00000000 -19.65234375
89.98704529 1189.00000000 -19.65234375
92.05570984 1189.00000000 -19.65234375
93.80773163 1185.00000000 -19.58622932
95.86943817 1185.00000000 -19.58622932
97.93114471 1185.00000000 -19.58622932
99.65532684 1181.00000000 -19.52011490
101.71007538 1181.00000000 -19.52011490
103.76482391 1181.00000000 -19.52011490
105.81957245 1181.00000000 -19.52011490
107.87432098 1181.00000000 -19.52011490
109.92906952 1181.00000000 -19.52011490
111.60453796 1177.00000000 -19.45400238
114.03856659 1181.00000000 -19.52011490
116.09331512 1181.00000000 -19.52011490
118.14806366 1181.00000000 -19.52011490
120.20281219 1181.00000000 -19.52011490
122.25756073 1181.00000000 -19.52011490
123.89127350 1177.00000000 -19.45400238
125.93906403 1177.00000000 -19.45400238
128.42181396 1181.00000000 -19.52011490
130.47656250 1181.00000000 -19.52011490
132.53131104 1181.00000000 -19.52011490
134.58605957 1181.00000000 -19.52011490
137.10360718 1185.00000000 -19.58622932
139.16531372 1185.00000000 -19.58622932
141.22702026 1185.00000000 -19.58622932
143.77239990 1189.00000000 -19.65234375
145.84106445 1189.00000000 -19.65234375
147.90974426 1189.00000000 -19.65234375
150.48295593 1193.00000000 -19.71845627
152.55859375 1193.00000000 -19.71845627
155.15267944 1197.00000000 -19.78457069
157.89205933 1202.00000000 -19.86721230
161.04812622 1210.00000000 -19.99944115
163.15333557 1210.00000000 -19.99944115
166.48773193 1219.00000000 -20.14819717
168.60859680 1219.00000000 -20.14819717
171.84991455 1227.00000000 -20.28042412
173.98469543 1227.00000000 -20.28042412
176.83715820 1232.00000000 -20.36306763
179.56175232 1236.00000000 -20.42918015
183.03533936 1245.00000000 -20.57793617
185.79646301 1249.00000000 -20.64405060
188.72200012 1254.00000000 -20.72669220
190.90374756 1254.00000000 -20.72669220
193.85539246 1259.00000000 -20.80933571
196.04583740 1259.00000000 -20.80933571
198.86611938 1263.00000000 -20.87545013
201.06353760 1263.00000000 -20.87545013
204.06562805 1268.00000000 -20.95809174
206.92243958 1272.00000000 -21.02420616
209.95759583 1277.00000000 -21.10684776
213.01013184 1282.00000000 -21.18948936
216.08007812 1287.00000000 -21.27213287
218.99778748 1291.00000000 -21.33824539
222.10079956 1296.00000000 -21.42088890
225.22119141 1301.00000000 -21.50353050
228.35899353 1306.00000000 -21.58617401
231.51419067 1311.00000000 -21.66881561
234.68678284 1316.00000000 -21.75145721
236.97640991 1316.00000000 -21.75145721
240.17509460 1321.00000000 -21.83410072
21.18948936 1282.00000000 -23.41996193
23.41996193 1282.00000000 -23.41996193
25.55039406 1277.00000000 -23.32862091
27.77216721 1277.00000000 -23.32862091
29.87650299 1272.00000000 -23.23727989
31.98866653 1268.00000000 -23.16420746
34.19478226 1268.00000000 -23.16420746
36.25735855 1263.00000000 -23.07286453
38.45477676 1263.00000000 -23.07286453
40.36250687 1254.00000000 -22.90845108
42.54426575 1254.00000000 -22.90845108
44.54768753 1249.00000000 -22.81710815
46.57112122 1245.00000000 -22.74403572
48.73722076 1245.00000000 -22.74403572
50.69888687 1240.00000000 -22.65269470
52.85628510 1240.00000000 -22.65269470
54.83622360 1236.00000000 -22.57962036
56.80223846 1232.00000000 -22.50654793
58.70649338 1227.00000000 -22.41520691
60.64293289 1223.00000000 -22.34213257
62.77075577 1223.00000000 -22.34213257
64.68631744 1219.00000000 -22.26906013
66.53315735 1214.00000000 -22.17771912
68.64531708 1214.00000000 -22.17771912
70.75748444 1214.00000000 -22.17771912
72.62954712 1210.00000000 -22.10464478
74.48769379 1206.00000000 -22.03157234
76.58593750 1206.00000000 -22.03157234
78.42321014 1202.00000000 -21.95849800
80.51449585 1202.00000000 -21.95849800
82.26216125 1197.00000000 -21.86715698
84.34474945 1197.00000000 -21.86715698
86.13851929 1193.00000000 -21.79408455
87.91837311 1189.00000000 -21.72101021
89.98704529 1189.00000000 -21.72101021
91.74601746 1185.00000000 -21.64793777
93.80773163 1185.00000000 -21.64793777
95.54582977 1181.00000000 -21.57486343
97.60057831 1181.00000000 -21.57486343
99.65532684 1181.00000000 -21.57486343
101.71007538 1181.00000000 -21.57486343
103.41337585 1177.00000000 -21.50179100
105.46116638 1177.00000000 -21.50179100
107.50895691 1177.00000000 -21.50179100
109.55674744 1177.00000000 -21.50179100
111.60453796 1177.00000000 -21.50179100
113.65232086 1177.00000000 -21.50179100
115.70011139 1177.00000000 -21.50179100
117.74790192 1177.00000000 -21.50179100
119.79569244 1177.00000000 -21.50179100
121.84348297 1177.00000000 -21.50179100
123.89127350 1177.00000000 -21.50179100
125.93906403 1177.00000000 -21.50179100
127.98685455 1177.00000000 -21.50179100
130.03463745 1177.00000000 -21.50179100
132.08242798 1177.00000000 -21.50179100
134.58605957 1181.00000000 -21.57486343
136.64080811 1181.00000000 -21.57486343
139.16531372 1185.00000000 -21.64793777
141.22702026 1185.00000000 -21.64793777
143.28872681 1185.00000000 -21.64793777
146.33171082 1193.00000000 -21.79408455
148.40733337 1193.00000000 -21.79408455
150.98751831 1197.00000000 -21.86715698
153.07009888 1197.00000000 -21.86715698
155.80078125 1202.00000000 -21.95849800
158.41749573 1206.00000000 -22.03157234
161.04812622 1210.00000000 -22.10464478
164.36686707 1219.00000000 -22.26906013
167.03404236 1223.00000000 -22.34213257
169.16186523 1223.00000000 -22.34213257
171.84991455 1227.00000000 -22.41520691
174.69367981 1232.00000000 -22.50654793
176.83715820 1232.00000000 -22.50654793
179.56175232 1236.00000000 -22.57962036
183.03533936 1245.00000000 -22.74403572
186.54023743 1254.00000000 -22.90845108
189.47447205 1259.00000000 -22.99979210
191.66493225 1259.00000000 -22.99979210
193.85539246 1259.00000000 -22.99979210
196.66870117 1263.00000000 -23.07286453
198.86611938 1263.00000000 -23.07286453
201.06353760 1263.00000000 -23.07286453
204.06562805 1268.00000000 -23.16420746
206.92243958 1272.00000000 -23.23727989
209.95759583 1277.00000000 -23.32862091
213.01013184 1282.00000000 -23.41996193
216.08007812 1287.00000000 -23.51130486
218.99778748 1291.00000000 -23.58437729
222.10079956 1296.00000000 -23.67571831
225.22119141 1301.00000000 -23.76706123
228.35899353 1306.00000000 -23.85840225
231.51419067 1311.00000000 -23.94974327
234.68678284 1316.00000000 -24.04108429
21.18948936 1282.00000000 -25.65043449
23.41996193 1282.00000000 -25.65043449
25.65043449 1282.00000000 -25.65043449
27.77216721 1277.00000000 -25.55039406
29.87650299 1272.00000000 -25.45035362
31.98866653 1268.00000000 -25.37032127
34.19478226 1268.00000000 -25.37032127
36.25735855 1263.00000000 -25.27028084
38.45477676 1263.00000000 -25.27028084
40.52344131 1259.00000000 -25.19024849
42.54426575 1254.00000000 -25.09020805
44.54768753 1249.00000000 -24.99016762
46.72074509 1249.00000000 -24.99016762
48.73722076 1245.00000000 -24.91013336
50.90331650 1245.00000000 -24.91013336
52.85628510 1240.00000000 -24.81009293
55.01368713 1240.00000000 -24.81009293
56.80223846 1232.00000000 -24.65002823
58.94572067 1232.00000000 -24.65002823
60.84127426 1227.00000000 -24.54998779
62.77075577 1223.00000000 -24.46995544
64.68631744 1219.00000000 -24.38992310
66.80718231 1219.00000000 -24.38992310
68.64531708 1214.00000000 -24.28988266
70.75748444 1214.00000000 -24.28988266
72.62954712 1210.00000000 -24.20984840
74.48769379 1206.00000000 -24.12981606
76.58593750 1206.00000000 -24.12981606
78.42321014 1202.00000000 -24.04978371
80.51449585 1202.00000000 -24.04978371
82.26216125 1197.00000000 -23.94974327
84.06289673 1193.00000000 -23.86971092
86.13851929 1193.00000000 -23.86971092
87.91837311 1189.00000000 -23.78967857
89.68431091 1185.00000000 -23.70964622
91.74601746 1185.00000000 -23.70964622
93.49108124 1181.00000000 -23.62961388
95.54582977 1181.00000000 -23.62961388
97.60057831 1181.00000000 -23.62961388
99.65532684 1181.00000000 -23.62961388
101.71007538 1181.00000000 -23.62961388
103.41337585 1177.00000000 -23.54958153
105.46116638 1177.00000000 -23.54958153
107.50895691 1177.00000000 -23.54958153
109.55674744 1177.00000000 -23.54958153
111.22525024 1173.00000000 -23.46954727
113.26608276 1173.00000000 -23.46954727
115.30690765 1173.00000000 -23.46954727
117.34774017 1173.00000000 -23.46954727
119.38857269 1173.00000000 -23.46954727
121.42939758 1173.00000000 -23.46954727
123.47023010 1173.00000000 -23.46954727
125.93906403 1177.00000000 -23.54958153
127.98685455 1177.00000000 -23.54958153
130.03463745 1177.00000000 -23.54958153
132.53131104 1181.00000000 -23.62961388
134.58605957 1181.00000000 -23.62961388
137.10360718 1185.00000000 -23.70964622
139.63507080 1189.00000000 -23.78967857
141.70373535 1189.00000000 -23.78967857
144.25607300 1193.00000000 -23.86971092
146.33171082 1193.00000000 -23.86971092
148.90492249 1197.00000000 -23.94974327
151.61820984 1202.00000000 -24.04978371
153.70948792 1202.00000000 -24.04978371
156.31924438 1206.00000000 -24.12981606
158.41749573 1206.00000000 -24.12981606
161.04812622 1210.00000000 -24.20984840
163.69268799 1214.00000000 -24.28988266
167.03404236 1223.00000000 -24.46995544
169.16186523 1223.00000000 -24.46995544
171.84991455 1227.00000000 -24.54998779
174.69367981 1232.00000000 -24.65002823
176.83715820 1232.00000000 -24.65002823
180.14285278 1240.00000000 -24.81009293
183.62339783 1249.00000000 -24.99016762
186.54023743 1254.00000000 -25.09020805
189.47447205 1259.00000000 -25.19024849
191.66493225 1259.00000000 -25.19024849
194.47129822 1263.00000000 -25.27028084
196.66870117 1263.00000000 -25.27028084
198.86611938 1263.00000000 -25.27028084
201.85951233 1268.00000000 -25.37032127
204.70936584 1272.00000000 -25.45035362
207.73582458 1277.00000000 -25.55039406
209.95759583 1277.00000000 -25.55039406
213.84091187 1287.00000000 -25.75047684
216.08007812 1287.00000000 -25.75047684
218.99778748 1291.00000000 -25.83050919
222.10079956 1296.00000000 -25.93054962
225.22119141 1301.00000000 -26.03059006
228.35899353 1306.00000000 -26.13063049
232.39715576 1316.00000000 -26.33071136
21.27213287 1287.00000000 -27.98964882
23.41996193 1282.00000000 -27.88090897
25.65043449 1282.00000000 -27.88090897
27.88090897 1282.00000000 -27.88090897
29.87650299 1272.00000000 -27.66342735
31.98866653 1268.00000000 -27.57643700
34.19478226 1268.00000000 -27.57643700
36.25735855 1263.00000000 -27.46769714
38.45477676 1263.00000000 -27.46769714
40.65219116 1263.00000000 -27.46769714
42.71389771 1259.00000000 -27.38070488
44.72602081 1254.00000000 -27.27196503
46.72074509 1249.00000000 -27.16322517
48.89380646 1249.00000000 -27.16322517
50.90331650 1245.00000000 -27.07623291
53.06941605 1245.00000000 -27.07623291
55.01368713 1240.00000000 -26.96749306
56.98666382 1236.00000000 -26.88050079
58.94572067 1232.00000000 -26.79350853
60.84127426 1227.00000000 -26.68476868
62.77075577 1223.00000000 -26.59777641
64.89857483 1223.00000000 -26.59777641
66.80718231 1219.00000000 -26.51078606
68.64531708 1214.00000000 -26.40204620
70.75748444 1214.00000000 -26.40204620
72.62954712 1210.00000000 -26.31505394
74.73474884 1210.00000000 -26.31505394
76.58593750 1206.00000000 -26.22806168
78.42321014 1202.00000000 -26.14106941
80.51449585 1202.00000000 -26.14106941
82.26216125 1197.00000000 -26.03232956
84.06289673 1193.00000000 -25.94533730
86.13851929 1193.00000000 -25.94533730
87.91837311 1189.00000000 -25.85834694
89.98704529 1189.00000000 -25.85834694
91.74601746 1185.00000000 -25.77135468
93.80773163 1185.00000000 -25.77135468
95.54582977 1181.00000000 -25.68436241
97.60057831 1181.00000000 -25.68436241
99.65532684 1181.00000000 -25.68436241
101.71007538 1181.00000000 -25.68436241
103.41337585 1177.00000000 -25.59737015
105.46116638 1177.00000000 -25.59737015
107.50895691 1177.00000000 -25.59737015
109.55674744 1177.00000000 -25.59737015
111.22525024 1173.00000000 -25.51037788
113.26608276 1173.00000000 -25.51037788
115.30690765 1173.00000000 -25.51037788
117.34774017 1173.00000000 -25.51037788
119.38857269 1173.00000000 -25.51037788
121.42939758 1173.00000000 -25.51037788
123.47023010 1173.00000000 -25.51037788
125.51106262 1173.00000000 -25.51037788
127.98685455 1177.00000000 -25.59737015
130.03463745 1177.00000000 -25.59737015
132.53131104 1181.00000000 -25.68436241
134.58605957 1181.00000000 -25.68436241
137.10360718 1185.00000000 -25.77135468
139.63507080 1189.00000000 -25.85834694
141.70373535 1189.00000000 -25.85834694
144.25607300 1193.00000000 -25.94533730
146.33171082 1193.00000000 -25.94533730
148.90492249 1197.00000000 -26.03232956
151.61820984 1202.00000000 -26.14106941
154.22100830 1206.00000000 -26.22806168
156.31924438 1206.00000000 -26.22806168
158.94291687 1210.00000000 -26.31505394
161.58052063 1214.00000000 -26.40204620
163.69268799 1214.00000000 -26.40204620
167.03404236 1223.00000000 -26.59777641
169.16186523 1223.00000000 -26.59777641
171.84991455 1227.00000000 -26.68476868
174.69367981 1232.00000000 -26.79350853
177.41130066 1236.00000000 -26.88050079
180.86923218 1245.00000000 -27.07623291
184.35847473 1254.00000000 -27.27196503
187.28401184 1259.00000000 -27.38070488
189.47447205 1259.00000000 -27.38070488
191.66493225 1259.00000000 -27.38070488
194.47129822 1263.00000000 -27.46769714
196.66870117 1263.00000000 -27.46769714
199.65339661 1268.00000000 -27.57643700
201.85951233 1268.00000000 -27.57643700
204.70936584 1272.00000000 -27.66342735
207.73582458 1277.00000000 -27.77216721
210.77966309 1282.00000000 -27.88090897
213.84091187 1287.00000000 -27.98964882
216.08007812 1287.00000000 -27.98964882
218.99778748 1291.00000000 -28.07663918
222.10079956 1296.00000000 -28.18537903
225.22119141 1301.00000000 -28.29411888
229.23326111 1311.00000000 -28.51159859
21.27213287 1287.00000000 -30.22881889
23.51130486 1287.00000000 -30.22881889
25.65043449 1282.00000000 -30.11138153
27.88090897 1282.00000000 -30.11138153
29.99394226 1277.00000000 -29.99394226
32.08957672 1272.00000000 -29.87650299
34.19478226 1268.00000000 -29.78255081
36.25735855 1263.00000000 -29.66511154
38.45477676 1263.00000000 -29.66511154
40.65219116 1263.00000000 -29.66511154
42.71389771 1259.00000000 -29.57116127
44.72602081 1254.00000000 -29.45372200
46.72074509 1249.00000000 -29.33628273
48.89380646 1249.00000000 -29.33628273
50.90331650 1245.00000000 -29.24233055
53.06941605 1245.00000000 -29.24233055
55.01368713 1240.00000000 -29.12489319
56.98666382 1236.00000000 -29.03094101
58.94572067 1232.00000000 -28.93699074
61.08919907 1232.00000000 -28.93699074
62.97605515 1227.00000000 -28.81955147
64.89857483 1223.00000000 -28.72559929
67.02639771 1223.00000000 -28.72559929
68.92803955 1219.00000000 -28.63164902
70.75748444 1214.00000000 -28.51420975
72.86964417 1214.00000000 -28.51420975
74.73474884 1210.00000000 -28.42025757
76.83995819 1210.00000000 -28.42025757
78.68418884 1206.00000000 -28.32630730
80.78243256 1206.00000000 -28.32630730
82.60578156 1202.00000000 -28.23235512
84.34474945 1197.00000000 -28.11491585
86.42733765 1197.00000000 -28.11491585
88.21414948 1193.00000000 -28.02096558
89.98704529 1189.00000000 -27.92701340
91.74601746 1185.00000000 -27.83306313
93.80773163 1185.00000000 -27.83306313
95.86943817 1185.00000000 -27.83306313
97.93114471 1185.00000000 -27.83306313
99.65532684 1181.00000000 -27.73911095
101.71007538 1181.00000000 -27.73911095
103.41337585 1177.00000000 -27.64516068
105.46116638 1177.00000000 -27.64516068
107.50895691 1177.00000000 -27.64516068
109.55674744 1177.00000000 -27.64516068
111.22525024 1173.00000000 -27.55120850
113.26608276 1173.00000000 -27.55120850
115.30690765 1173.00000000 -27.55120850
117.34774017 1173.00000000 -27.55120850
119.38857269 1173.00000000 -27.55120850
121.42939758 1173.00000000 -27.55120850
123.47023010 1173.00000000 -27.55120850
125.51106262 1173.00000000 -27.55120850
127.98685455 1177.00000000 -27.64516068
130.03463745 1177.00000000 -27.64516068
132.53131104 1181.00000000 -27.73911095
134.58605957 1181.00000000 -27.73911095
137.10360718 1185.00000000 -27.83306313
139.63507080 1189.00000000 -27.92701340
141.70373535 1189.00000000 -27.92701340
144.25607300 1193.00000000 -28.02096558
146.33171082 1193.00000000 -28.02096558
148.90492249 1197.00000000 -28.11491585
151.61820984 1202.00000000 -28.23235512
154.22100830 1206.00000000 -28.32630730
156.31924438 1206.00000000 -28.32630730
158.94291687 1210.00000000 -28.42025757
161.58052063 1214.00000000 -28.51420975
164.36686707 1219.00000000 -28.63164902
167.58035278 1227.00000000 -28.81955147
169.71513367 1227.00000000 -28.81955147
171.84991455 1227.00000000 -28.81955147
174.69367981 1232.00000000 -28.93699074
177.41130066 1236.00000000 -29.03094101
180.86923218 1245.00000000 -29.24233055
184.35847473 1254.00000000 -29.45372200
187.28401184 1259.00000000 -29.57116127
189.47447205 1259.00000000 -29.57116127
191.66493225 1259.00000000 -29.57116127
194.47129822 1263.00000000 -29.66511154
196.66870117 1263.00000000 -29.66511154
199.65339661 1268.00000000 -29.78255081
201.85951233 1268.00000000 -29.78255081
204.70936584 1272.00000000 -29.87650299
207.73582458 1277.00000000 -29.99394226
210.77966309 1282.00000000 -30.11138153
213.84091187 1287.00000000 -30.22881889
216.08007812 1287.00000000 -30.22881889
219.84596252 1296.00000000 -30.44021034
222.95765686 1301.00000000 -30.55764961
226.08676147 1306.00000000 -30.67508888
21.27213287 1287.00000000 -32.46799088
23.51130486 1287.00000000 -32.46799088
25.75047684 1287.00000000 -32.46799088
27.88090897 1282.00000000 -32.34185410
29.99394226 1277.00000000 -32.21571350
32.08957672 1272.00000000 -32.08957672
34.19478226 1268.00000000 -31.98866653
36.40089417 1268.00000000 -31.98866653
38.45477676 1263.00000000 -31.86252785
40.65219116 1263.00000000 -31.86252785
42.71389771 1259.00000000 -31.76161766
44.72602081 1254.00000000 -31.63547897
46.72074509 1249.00000000 -31.50934029
48.89380646 1249.00000000 -31.50934029
51.06686401 1249.00000000 -31.50934029
53.06941605 1245.00000000 -31.40843010
55.01368713 1240.00000000 -31.28229141
56.98666382 1236.00000000 -31.18138123
58.94572067 1232.00000000 -31.08047104
61.08919907 1232.00000000 -31.08047104
62.97605515 1227.00000000 -30.95433235
65.11083984 1227.00000000 -30.95433235
67.24562073 1227.00000000 -30.95433235
69.15422058 1223.00000000 -30.85342216
71.28204346 1223.00000000 -30.85342216
73.16976929 1219.00000000 -30.75251198
74.98181152 1214.00000000 -30.62637329
76.83995819 1210.00000000 -30.52546310
78.94515991 1210.00000000 -30.52546310
81.05036163 1210.00000000 -30.52546310
82.88067627 1206.00000000 -30.42455101
84.69706726 1202.00000000 -30.32364082
86.42733765 1197.00000000 -30.19750214
88.21414948 1193.00000000 -30.09659195
90.28977966 1193.00000000 -30.09659195
92.05570984 1189.00000000 -29.99568176
94.12438202 1189.00000000 -29.99568176
95.86943817 1185.00000000 -29.89477158
97.93114471 1185.00000000 -29.89477158
99.65532684 1181.00000000 -29.79385948
101.71007538 1181.00000000 -29.79385948
103.76482391 1181.00000000 -29.79385948
105.46116638 1177.00000000 -29.69294930
107.50895691 1177.00000000 -29.69294930
109.55674744 1177.00000000 -29.69294930
111.22525024 1173.00000000 -29.59203911
113.26608276 1173.00000000 -29.59203911
114.91370392 1169.00000000 -29.49112892
116.94757843 1169.00000000 -29.49112892
118.98144531 1169.00000000 -29.49112892
121.01531982 1169.00000000 -29.49112892
123.47023010 1173.00000000 -29.59203911
125.51106262 1173.00000000 -29.59203911
127.98685455 1177.00000000 -29.69294930
130.03463745 1177.00000000 -29.69294930
132.53131104 1181.00000000 -29.79385948
134.58605957 1181.00000000 -29.79385948
137.10360718 1185.00000000 -29.89477158
139.63507080 1189.00000000 -29.99568176
141.70373535 1189.00000000 -29.99568176
144.25607300 1193.00000000 -30.09659195
146.82234192 1197.00000000 -30.19750214
149.52691650 1202.00000000 -30.32364082
152.12275696 1206.00000000 -30.42455101
154.22100830 1206.00000000 -30.42455101
156.83772278 1210.00000000 -30.52546310
158.94291687 1210.00000000 -30.52546310
161.58052063 1214.00000000 -30.62637329
164.36686707 1219.00000000 -30.75251198
167.03404236 1223.00000000 -30.85342216
169.71513367 1227.00000000 -30.95433235
171.84991455 1227.00000000 -30.95433235
174.69367981 1232.00000000 -31.08047104
177.41130066 1236.00000000 -31.18138123
180.86923218 1245.00000000 -31.40843010
184.35847473 1254.00000000 -31.63547897
187.28401184 1259.00000000 -31.76161766
189.47447205 1259.00000000 -31.76161766
191.66493225 1259.00000000 -31.76161766
194.47129822 1263.00000000 -31.86252785
196.66870117 1263.00000000 -31.86252785
199.65339661 1268.00000000 -31.98866653
201.85951233 1268.00000000 -31.98866653
204.70936584 1272.00000000 -32.08957672
207.73582458 1277.00000000 -32.21571350
210.77966309 1282.00000000 -32.34185410
213.84091187 1287.00000000 -32.46799088
216.75166321 1291.00000000 -32.56890106
220.69413757 1301.00000000 -32.82117844
223.81452942 1306.00000000 -32.94731522
21.27213287 1287.00000000 -34.70716476
23.51130486 1287.00000000 -34.70716476
25.75047684 1287.00000000 -34.70716476
27.88090897 1282.00000000 -34.57232666
30.11138153 1282.00000000 -34.57232666
32.08957672 1272.00000000 -34.30265045
34.30265045 1272.00000000 -34.30265045
36.40089417 1268.00000000 -34.19478226
38.60700989 1268.00000000 -34.19478226
40.65219116 1263.00000000 -34.05994415
42.71389771 1259.00000000 -33.95207214
44.90435410 1259.00000000 -33.95207214
46.90777969 1254.00000000 -33.81723785
49.08953476 1254.00000000 -33.81723785
51.06686401 1249.00000000 -33.68239975
53.23992157 1249.00000000 -33.68239975
55.23551559 1245.00000000 -33.57452774
57.17108536 1240.00000000 -33.43968964
59.32848358 1240.00000000 -33.43968964
61.08919907 1232.00000000 -33.22394943
63.23268127 1232.00000000 -33.22394943
65.11083984 1227.00000000 -33.08911514
67.24562073 1227.00000000 -33.08911514
69.38040161 1227.00000000 -33.08911514
71.28204346 1223.00000000 -32.98124313
73.40986633 1223.00000000 -32.98124313
74.98181152 1214.00000000 -32.73853683
77.09397125 1214.00000000 -32.73853683
78.94515991 1210.00000000 -32.63066483
81.05036163 1210.00000000 -32.63066483
82.88067627 1206.00000000 -32.52279663
84.69706726 1202.00000000 -32.41492462
86.42733765 1197.00000000 -32.28009033
88.50991821 1197.00000000 -32.28009033
90.28977966 1193.00000000 -32.17221832
92.05570984 1189.00000000 -32.06435013
94.12438202 1189.00000000 -32.06435013
95.86943817 1185.00000000 -31.95648003
97.93114471 1185.00000000 -31.95648003
99.99285126 1185.00000000 -31.95648003
101.71007538 1181.00000000 -31.84860992
103.76482391 1181.00000000 -31.84860992
105.46116638 1177.00000000 -31.74073982
107.50895691 1177.00000000 -31.74073982
109.55674744 1177.00000000 -31.74073982
111.22525024 1173.00000000 -31.63286972
113.26608276 1173.00000000 -31.63286972
115.30690765 1173.00000000 -31.63286972
116.94757843 1169.00000000 -31.52499962
118.98144531 1169.00000000 -31.52499962
121.01531982 1169.00000000 -31.52499962
123.47023010 1173.00000000 -31.63286972
125.51106262 1173.00000000 -31.63286972
127.98685455 1177.00000000 -31.74073982
130.03463745 1177.00000000 -31.74073982
132.53131104 1181.00000000 -31.84860992
135.04190063 1185.00000000 -31.95648003
137.56640625 1189.00000000 -32.06435013
140.10482788 1193.00000000 -32.17221832
142.18045044 1193.00000000 -32.17221832
144.73976135 1197.00000000 -32.28009033
147.43563843 1202.00000000 -32.41492462
149.52691650 1202.00000000 -32.41492462
152.12275696 1206.00000000 -32.52279663
154.22100830 1206.00000000 -32.52279663
156.83772278 1210.00000000 -32.63066483
159.46835327 1214.00000000 -32.73853683
162.24600220 1219.00000000 -32.87337494
164.90621948 1223.00000000 -32.98124313
167.58035278 1227.00000000 -33.08911514
169.71513367 1227.00000000 -33.08911514
172.55020142 1232.00000000 -33.22394943
175.26086426 1236.00000000 -33.33182144
177.98545837 1240.00000000 -33.43968964
181.45034790 1249.00000000 -33.68239975
184.35847473 1254.00000000 -33.81723785
187.28401184 1259.00000000 -33.95207214
189.47447205 1259.00000000 -33.95207214
191.66493225 1259.00000000 -33.95207214
194.47129822 1263.00000000 -34.05994415
196.66870117 1263.00000000 -34.05994415
199.65339661 1268.00000000 -34.19478226
202.49629211 1272.00000000 -34.30265045
204.70936584 1272.00000000 -34.30265045
207.73582458 1277.00000000 -34.43748856
210.77966309 1282.00000000 -34.57232666
213.84091187 1287.00000000 -34.70716476
217.59112549 1296.00000000 -34.94987106
21.27213287 1287.00000000 -36.94633484
23.51130486 1287.00000000 -36.94633484
25.75047684 1287.00000000 -36.94633484
27.98964882 1287.00000000 -36.94633484
30.11138153 1282.00000000 -36.80279922
32.21571350 1277.00000000 -36.65926361
34.43748856 1277.00000000 -36.65926361
36.51572418 1272.00000000 -36.51572418
38.60700989 1268.00000000 -36.40089417
40.81312561 1268.00000000 -36.40089417
43.01924133 1268.00000000 -36.40089417
44.90435410 1259.00000000 -36.14252853
46.90777969 1254.00000000 -35.99899292
49.08953476 1254.00000000 -35.99899292
51.06686401 1249.00000000 -35.85545731
53.23992157 1249.00000000 -35.85545731
55.41297913 1249.00000000 -35.85545731
57.40161514 1245.00000000 -35.74062729
59.32848358 1240.00000000 -35.59709167
61.28754425 1236.00000000 -35.48226166
63.23268127 1232.00000000 -35.36743164
65.37615967 1232.00000000 -35.36743164
67.24562073 1227.00000000 -35.22389603
69.38040161 1227.00000000 -35.22389603
71.28204346 1223.00000000 -35.10906601
73.40986633 1223.00000000 -35.10906601
74.98181152 1214.00000000 -34.85070038
77.09397125 1214.00000000 -34.85070038
78.94515991 1210.00000000 -34.73587036
81.05036163 1210.00000000 -34.73587036
83.15557098 1210.00000000 -34.73587036
84.97891998 1206.00000000 -34.62104034
86.78835297 1202.00000000 -34.50621033
88.50991821 1197.00000000 -34.36267471
90.28977966 1193.00000000 -34.24784470
92.36540222 1193.00000000 -34.24784470
94.12438202 1189.00000000 -34.13301849
96.19304657 1189.00000000 -34.13301849
98.26171875 1189.00000000 -34.13301849
99.99285126 1185.00000000 -34.01818848
