227.29942322 1368.00000000 96.39399719
229.67953491 1368.00000000 96.39399719
233.07743835 1374.00000000 96.81678009
236.32484436 1379.00000000 97.16909790
239.76275635 1385.00000000 97.59188080
244.09582520 1396.00000000 98.36697388
-42.37462997 1249.00000000 85.83579254
-40.20157242 1249.00000000 85.83579254
-38.02851486 1249.00000000 85.83579254
-35.85545731 1249.00000000 85.83579254
-33.68239975 1249.00000000 85.83579254
-31.40843010 1245.00000000 85.56089783
-29.12489319 1240.00000000 85.21727753
-26.88050079 1236.00000000 84.94238281
-24.73006058 1236.00000000 84.94238281
-22.50654793 1232.00000000 84.66748810
-20.28042412 1227.00000000 84.32386780
-18.14564323 1227.00000000 84.32386780
-16.01086235 1227.00000000 84.32386780
-13.83084393 1223.00000000 84.04897308
-11.66474533 1219.00000000 83.77407837
-9.50473595 1214.00000000 83.43046570
-7.36821508 1210.00000000 83.15557098
-5.26301050 1210.00000000 83.15557098
-3.14736748 1206.00000000 82.88067627
-1.04564273 1202.00000000 82.60578156
1.04564273 1202.00000000 82.60578156
3.12387967 1197.00000000 82.26216125
5.20646620 1197.00000000 82.26216125
7.28905249 1197.00000000 82.26216125
9.37163830 1197.00000000 82.26216125
11.45422554 1197.00000000 82.26216125
13.53681183 1197.00000000 82.26216125
15.61939812 1197.00000000 82.26216125
17.70198441 1197.00000000 82.26216125
19.78457069 1197.00000000 82.26216125
21.86715698 1197.00000000 82.26216125
23.94974327 1197.00000000 82.26216125
26.03232956 1197.00000000 82.26216125
28.11491585 1197.00000000 82.26216125
30.19750214 1197.00000000 82.26216125
32.17221832 1193.00000000 81.98726654
34.36267471 1197.00000000 82.26216125
36.32347488 1193.00000000 81.98726654
38.39910126 1193.00000000 81.98726654
40.47472763 1193.00000000 81.98726654
42.69301987 1197.00000000 82.26216125
44.77560806 1197.00000000 82.26216125
46.85819244 1197.00000000 82.26216125
48.94078064 1197.00000000 82.26216125
50.85286331 1193.00000000 81.98726654
52.92848969 1193.00000000 81.98726654
55.00411606 1193.00000000 81.98726654
57.07974243 1193.00000000 81.98726654
59.15536880 1193.00000000 81.98726654
61.23099899 1193.00000000 81.98726654
63.30662537 1193.00000000 81.98726654
65.38224792 1193.00000000 81.98726654
67.45787811 1193.00000000 81.98726654
69.53350830 1193.00000000 81.98726654
71.60913086 1193.00000000 81.98726654
73.68476105 1193.00000000 81.98726654
75.76038361 1193.00000000 81.98726654
77.83601379 1193.00000000 81.98726654
80.17957306 1197.00000000 82.26216125
82.26216125 1197.00000000 82.26216125
84.34474945 1197.00000000 82.26216125
86.42733765 1197.00000000 82.26216125
88.50991821 1197.00000000 82.26216125
90.59250641 1197.00000000 82.26216125
92.67509460 1197.00000000 82.26216125
94.75768280 1197.00000000 82.26216125
96.84027100 1197.00000000 82.26216125
98.92285156 1197.00000000 82.26216125
101.00543976 1197.00000000 82.26216125
103.08802795 1197.00000000 82.26216125
105.17061615 1197.00000000 82.26216125
107.70121002 1202.00000000 82.60578156
109.79249573 1202.00000000 82.60578156
111.88378143 1202.00000000 82.60578156
114.35434723 1206.00000000 82.88067627
116.45259094 1206.00000000 82.88067627
118.94404602 1210.00000000 83.15557098
121.04924774 1210.00000000 83.15557098
123.56157684 1214.00000000 83.43046570
126.19133759 1219.00000000 83.77407837
128.31219482 1219.00000000 83.77407837
130.86106873 1223.00000000 84.04897308
133.42384338 1227.00000000 84.32386780
135.55862427 1227.00000000 84.32386780
139.15226746 1240.00000000 85.21727753
141.87945557 1245.00000000 85.56089783
144.04556274 1245.00000000 85.56089783
146.68141174 1249.00000000 85.83579254
150.04626465 1259.00000000 86.52302551
152.72039795 1263.00000000 86.79792023
155.53109741 1268.00000000 87.14154053
158.23480225 1272.00000000 87.41643524
161.70925903 1282.00000000 88.10366821
163.93974304 1282.00000000 88.10366821
166.17021179 1282.00000000 88.10366821
169.05747986 1287.00000000 88.44728851
171.82904053 1291.00000000 88.72218323
174.07516479 1291.00000000 88.72218323
177.00418091 1296.00000000 89.06580353
179.95060730 1301.00000000 89.40941620
182.91441345 1306.00000000 89.75303650
185.89562988 1311.00000000 90.09665680
188.89424133 1316.00000000 90.44026947
191.91024780 1321.00000000 90.78388977
194.20857239 1321.00000000 90.78388977
197.25068665 1326.00000000 91.12751007
200.31018066 1331.00000000 91.47112274
202.62591553 1331.00000000 91.47112274
205.71151733 1336.00000000 91.81474304
208.97023010 1342.00000000 92.22708893
212.09237671 1347.00000000 92.57070160
215.23191833 1352.00000000 92.91432190
218.54978943 1358.00000000 93.32666016
221.72586060 1363.00000000 93.67028046
224.09725952 1363.00000000 93.67028046
227.29942322 1368.00000000 94.01390076
229.67953491 1368.00000000 94.01390076
233.07743835 1374.00000000 94.42623901
236.32484436 1379.00000000 94.76985931
240.62832642 1390.00000000 95.52581787
-44.72602081 1254.00000000 83.99765015
-42.54426575 1254.00000000 83.99765015
-40.36250687 1254.00000000 83.99765015
-38.18075180 1254.00000000 83.99765015
-35.85545731 1249.00000000 83.66273499
-33.68239975 1249.00000000 83.66273499
-31.50934029 1249.00000000 83.66273499
-29.24233055 1245.00000000 83.39479828
-26.96749306 1240.00000000 83.05987549
-24.73006058 1236.00000000 82.79194641
-22.57962036 1236.00000000 82.79194641
-20.36306763 1232.00000000 82.52400970
-18.21958542 1232.00000000 82.52400970
-16.01086235 1227.00000000 82.18908691
-13.83084393 1223.00000000 81.92115784
-11.70302200 1223.00000000 81.92115784
-9.50473595 1214.00000000 81.31829834
-7.39257288 1214.00000000 81.31829834
-5.26301050 1210.00000000 81.05036163
-3.14736748 1206.00000000 80.78243256
-1.04912245 1206.00000000 80.78243256
1.04564273 1202.00000000 80.51449585
3.12387967 1197.00000000 80.17957306
5.20646620 1197.00000000 80.17957306
7.28905249 1197.00000000 80.17957306
9.37163830 1197.00000000 80.17957306
11.45422554 1197.00000000 80.17957306
13.53681183 1197.00000000 80.17957306
15.61939812 1197.00000000 80.17957306
17.70198441 1197.00000000 80.17957306
19.78457069 1197.00000000 80.17957306
21.86715698 1197.00000000 80.17957306
23.94974327 1197.00000000 80.17957306
25.94533730 1193.00000000 79.91164398
28.02096558 1193.00000000 79.91164398
30.09659195 1193.00000000 79.91164398
32.17221832 1193.00000000 79.91164398
34.24784470 1193.00000000 79.91164398
36.32347488 1193.00000000 79.91164398
38.39910126 1193.00000000 79.91164398
40.47472763 1193.00000000 79.91164398
42.55035400 1193.00000000 79.91164398
44.62598038 1193.00000000 79.91164398
46.70160675 1193.00000000 79.91164398
48.77723694 1193.00000000 79.91164398
50.85286331 1193.00000000 79.91164398
52.92848969 1193.00000000 79.91164398
55.00411606 1193.00000000 79.91164398
57.07974243 1193.00000000 79.91164398
59.15536880 1193.00000000 79.91164398
61.23099899 1193.00000000 79.91164398
63.09436417 1189.00000000 79.64370728
65.16303253 1189.00000000 79.64370728
67.45787811 1193.00000000 79.91164398
69.53350830 1193.00000000 79.91164398
71.36903381 1189.00000000 79.64370728
73.43770599 1189.00000000 79.64370728
75.50637054 1189.00000000 79.64370728
77.83601379 1193.00000000 79.91164398
79.91164398 1193.00000000 79.91164398
81.98726654 1193.00000000 79.91164398
84.06289673 1193.00000000 79.91164398
86.13851929 1193.00000000 79.91164398
88.21414948 1193.00000000 79.91164398
90.59250641 1197.00000000 80.17957306
92.36540222 1193.00000000 79.91164398
94.44103241 1193.00000000 79.91164398
96.51665497 1193.00000000 79.91164398
98.59228516 1193.00000000 79.91164398
101.00543976 1197.00000000 80.17957306
103.08802795 1197.00000000 80.17957306
105.17061615 1197.00000000 80.17957306
107.25319672 1197.00000000 80.17957306
109.33578491 1197.00000000 80.17957306
111.88378143 1202.00000000 80.51449585
113.97506714 1202.00000000 80.51449585
116.45259094 1206.00000000 80.78243256
118.94404602 1210.00000000 81.05036163
121.04924774 1210.00000000 81.05036163
123.56157684 1214.00000000 81.31829834
126.60542297 1223.00000000 81.92115784
128.73324585 1223.00000000 81.92115784
131.28906250 1227.00000000 82.18908691
133.96754456 1232.00000000 82.52400970
136.99485779 1240.00000000 83.05987549
139.71336365 1245.00000000 83.39479828
141.87945557 1245.00000000 83.39479828
144.50836182 1249.00000000 83.66273499
147.26861572 1254.00000000 83.99765015
150.04626465 1259.00000000 84.33257294
152.72039795 1263.00000000 84.60050201
156.02172852 1272.00000000 85.20336151
158.85679626 1277.00000000 85.53827667
162.33995056 1287.00000000 86.20811462
164.57913208 1287.00000000 86.20811462
166.81829834 1287.00000000 86.20811462
169.05747986 1287.00000000 86.20811462
171.82904053 1291.00000000 86.47605133
174.74935913 1296.00000000 86.81096649
177.68707275 1301.00000000 87.14588928
179.95060730 1301.00000000 87.14588928
182.91441345 1306.00000000 87.48080444
185.89562988 1311.00000000 87.81572723
188.89424133 1316.00000000 88.15064240
191.91024780 1321.00000000 88.48556519
194.94366455 1326.00000000 88.82048035
197.25068665 1326.00000000 88.82048035
200.31018066 1331.00000000 89.15540314
202.62591553 1331.00000000 89.15540314
205.71151733 1336.00000000 89.49031830
208.97023010 1342.00000000 89.89221954
212.09237671 1347.00000000 90.22714233
216.18708801 1358.00000000 90.96396637
218.54978943 1358.00000000 90.96396637
221.72586060 1363.00000000 91.29888153
224.91932678 1368.00000000 91.63380432
227.29942322 1368.00000000 91.63380432
229.67953491 1368.00000000 91.63380432
233.07743835 1374.00000000 92.03570557
237.35308838 1385.00000000 92.77252197
240.62832642 1390.00000000 93.10744476
-44.72602081 1254.00000000 81.81589508
-42.54426575 1254.00000000 81.81589508
-40.36250687 1254.00000000 81.81589508
-38.18075180 1254.00000000 81.81589508
-35.99899292 1254.00000000 81.81589508
-33.68239975 1249.00000000 81.48967743
-31.50934029 1249.00000000 81.48967743
-29.24233055 1245.00000000 81.22869873
-26.96749306 1240.00000000 80.90248108
-24.73006058 1236.00000000 80.64150238
-22.57962036 1236.00000000 80.64150238
-20.36306763 1232.00000000 80.38052368
-18.21958542 1232.00000000 80.38052368
-16.01086235 1227.00000000 80.05430603
-13.87607956 1227.00000000 80.05430603
-11.70302200 1223.00000000 79.79333496
-9.54388237 1219.00000000 79.53235626
-7.39257288 1214.00000000 79.20613861
-5.26301050 1210.00000000 78.94515991
-3.14736748 1206.00000000 78.68418884
-1.04912245 1206.00000000 78.68418884
1.04564273 1202.00000000 78.42321014
3.12387967 1197.00000000 78.09699249
5.20646620 1197.00000000 78.09699249
7.28905249 1197.00000000 78.09699249
9.37163830 1197.00000000 78.09699249
11.45422554 1197.00000000 78.09699249
13.53681183 1197.00000000 78.09699249
15.61939812 1197.00000000 78.09699249
17.64282990 1193.00000000 77.83601379
19.71845627 1193.00000000 77.83601379
21.79408455 1193.00000000 77.83601379
23.86971092 1193.00000000 77.83601379
25.94533730 1193.00000000 77.83601379
28.02096558 1193.00000000 77.83601379
30.09659195 1193.00000000 77.83601379
32.17221832 1193.00000000 77.83601379
34.24784470 1193.00000000 77.83601379
36.20168304 1189.00000000 77.57503510
38.27035141 1189.00000000 77.57503510
40.33901978 1189.00000000 77.57503510
42.40768814 1189.00000000 77.57503510
44.47635651 1189.00000000 77.57503510
46.54502106 1189.00000000 77.57503510
48.61368942 1189.00000000 77.57503510
50.68235779 1189.00000000 77.57503510
52.75102615 1189.00000000 77.57503510
54.81969452 1189.00000000 77.57503510
56.88836288 1189.00000000 77.57503510
58.95702744 1189.00000000 77.57503510
61.02569580 1189.00000000 77.57503510
63.09436417 1189.00000000 77.57503510
65.16303253 1189.00000000 77.57503510
67.23169708 1189.00000000 77.57503510
69.30036926 1189.00000000 77.57503510
71.36903381 1189.00000000 77.57503510
73.43770599 1189.00000000 77.57503510
75.50637054 1189.00000000 77.57503510
77.57503510 1189.00000000 77.57503510
79.91164398 1193.00000000 77.83601379
81.98726654 1193.00000000 77.83601379
84.06289673 1193.00000000 77.83601379
85.84970856 1189.00000000 77.57503510
87.91837311 1189.00000000 77.57503510
89.98704529 1189.00000000 77.57503510
92.05570984 1189.00000000 77.57503510
94.12438202 1189.00000000 77.57503510
96.19304657 1189.00000000 77.57503510
98.26171875 1189.00000000 77.57503510
100.66790771 1193.00000000 77.83601379
102.74353790 1193.00000000 77.83601379
105.17061615 1197.00000000 78.09699249
107.25319672 1197.00000000 78.09699249
109.79249573 1202.00000000 78.42321014
111.88378143 1202.00000000 78.42321014
114.73363495 1210.00000000 78.94515991
116.83883667 1210.00000000 78.94515991
119.33724213 1214.00000000 79.20613861
121.44940948 1214.00000000 79.20613861
124.07047272 1219.00000000 79.53235626
126.60542297 1223.00000000 79.79333496
129.15428162 1227.00000000 80.05430603
131.28906250 1227.00000000 80.05430603
133.96754456 1232.00000000 80.38052368
136.55294800 1236.00000000 80.64150238
139.71336365 1245.00000000 81.22869873
142.33529663 1249.00000000 81.48967743
145.08685303 1254.00000000 81.81589508
147.85580444 1259.00000000 82.14211273
150.52297974 1263.00000000 82.40309143
153.32498169 1268.00000000 82.72930908
156.02172852 1272.00000000 82.99028778
158.85679626 1277.00000000 83.31650543
162.33995056 1287.00000000 83.96894073
164.57913208 1287.00000000 83.96894073
166.81829834 1287.00000000 83.96894073
169.58290100 1291.00000000 84.22991943
172.49452209 1296.00000000 84.55613708
175.42353821 1301.00000000 84.88236237
178.36996460 1306.00000000 85.20858002
180.64218140 1306.00000000 85.20858002
183.61470032 1311.00000000 85.53479767
185.89562988 1311.00000000 85.53479767
189.61192322 1321.00000000 86.18724060
191.91024780 1321.00000000 86.18724060
194.94366455 1326.00000000 86.51345825
197.25068665 1326.00000000 86.51345825
200.31018066 1331.00000000 86.83967590
202.62591553 1331.00000000 86.83967590
205.71151733 1336.00000000 87.16589355
209.74880981 1347.00000000 87.88358307
213.82438660 1358.00000000 88.60126495
216.98306274 1363.00000000 88.92748260
219.35446167 1363.00000000 88.92748260
222.53923035 1368.00000000 89.25370026
224.91932678 1368.00000000 89.25370026
227.29942322 1368.00000000 89.25370026
229.67953491 1368.00000000 89.25370026
233.07743835 1374.00000000 89.64516449
237.35308838 1385.00000000 90.36284637
-44.72602081 1254.00000000 79.63414001
-42.54426575 1254.00000000 79.63414001
-40.36250687 1254.00000000 79.63414001
-38.18075180 1254.00000000 79.63414001
-35.99899292 1254.00000000 79.63414001
-33.68239975 1249.00000000 79.31661987
-31.50934029 1249.00000000 79.31661987
-29.24233055 1245.00000000 79.06259918
-27.07623291 1245.00000000 79.06259918
-24.81009293 1240.00000000 78.74507904
-22.57962036 1236.00000000 78.49106598
-20.36306763 1232.00000000 78.23704529
-18.21958542 1232.00000000 78.23704529
-16.07610512 1232.00000000 78.23704529
-13.87607956 1227.00000000 77.91952515
-11.70302200 1223.00000000 77.66551208
-9.54388237 1219.00000000 77.41149139
-7.39257288 1214.00000000 77.09397125
-5.28040934 1214.00000000 77.09397125
-3.15780640 1210.00000000 76.83995819
-1.04912245 1206.00000000 76.58593750
1.04564273 1202.00000000 76.33192444
3.13692832 1202.00000000 76.33192444
5.22821379 1202.00000000 76.33192444
7.28905249 1197.00000000 76.01440430
9.37163830 1197.00000000 76.01440430
11.45422554 1197.00000000 76.01440430
13.53681183 1197.00000000 76.01440430
15.56720257 1193.00000000 75.76038361
17.64282990 1193.00000000 75.76038361
19.71845627 1193.00000000 75.76038361
21.79408455 1193.00000000 75.76038361
23.86971092 1193.00000000 75.76038361
25.94533730 1193.00000000 75.76038361
27.92701340 1189.00000000 75.50637054
29.99568176 1189.00000000 75.50637054
32.06435013 1189.00000000 75.50637054
34.13301849 1189.00000000 75.50637054
36.07989502 1185.00000000 75.25235748
38.14160538 1185.00000000 75.25235748
40.20331192 1185.00000000 75.25235748
42.26502228 1185.00000000 75.25235748
44.32672882 1185.00000000 75.25235748
46.54502106 1189.00000000 75.50637054
48.45014572 1185.00000000 75.25235748
50.51185226 1185.00000000 75.25235748
52.75102615 1189.00000000 75.50637054
54.81969452 1189.00000000 75.50637054
56.88836288 1189.00000000 75.50637054
58.95702744 1189.00000000 75.50637054
61.02569580 1189.00000000 75.50637054
62.88210297 1185.00000000 75.25235748
64.94380951 1185.00000000 75.25235748
66.77934265 1181.00000000 74.99833679
68.83409119 1181.00000000 74.99833679
70.88883972 1181.00000000 74.99833679
72.94358826 1181.00000000 74.99833679
74.99833679 1181.00000000 74.99833679
77.05308533 1181.00000000 74.99833679
79.37577057 1185.00000000 75.25235748
81.43747711 1185.00000000 75.25235748
83.49918365 1185.00000000 75.25235748
85.56089783 1185.00000000 75.25235748
87.62260437 1185.00000000 75.25235748
89.68431091 1185.00000000 75.25235748
91.74601746 1185.00000000 75.25235748
93.80773163 1185.00000000 75.25235748
96.19304657 1189.00000000 75.50637054
98.26171875 1189.00000000 75.50637054
100.33038330 1189.00000000 75.50637054
102.74353790 1193.00000000 75.76038361
105.17061615 1197.00000000 76.01440430
107.25319672 1197.00000000 76.01440430
109.79249573 1202.00000000 76.33192444
112.25610352 1206.00000000 76.58593750
114.73363495 1210.00000000 76.83995819
116.83883667 1210.00000000 76.83995819
119.33724213 1214.00000000 77.09397125
121.94961548 1219.00000000 77.41149139
124.47760010 1223.00000000 77.66551208
127.01950073 1227.00000000 77.91952515
129.15428162 1227.00000000 77.91952515
131.82406616 1232.00000000 78.23704529
134.40251160 1236.00000000 78.49106598
136.99485779 1240.00000000 78.74507904
139.71336365 1245.00000000 79.06259918
142.33529663 1249.00000000 79.31661987
145.08685303 1254.00000000 79.63414001
147.85580444 1259.00000000 79.95166016
150.52297974 1263.00000000 80.20567322
153.32498169 1268.00000000 80.52319336
156.02172852 1272.00000000 80.77721405
159.47879028 1282.00000000 81.41225433
162.33995056 1287.00000000 81.72977448
165.09063721 1291.00000000 81.98378754
167.33677673 1291.00000000 81.98378754
170.23970032 1296.00000000 82.30130768
173.16001892 1301.00000000 82.61882782
175.42353821 1301.00000000 82.61882782
178.36996460 1306.00000000 82.93634796
180.64218140 1306.00000000 82.93634796
183.61470032 1311.00000000 83.25386810
186.60461426 1316.00000000 83.57138824
188.89424133 1316.00000000 83.57138824
191.91024780 1321.00000000 83.88890839
194.94366455 1326.00000000 84.20642853
197.99446106 1331.00000000 84.52394867
200.31018066 1331.00000000 84.52394867
203.38708496 1336.00000000 84.84147644
206.63537598 1342.00000000 85.22249603
210.52738953 1352.00000000 85.85753632
214.61166382 1363.00000000 86.55608368
217.77903748 1368.00000000 86.87360382
220.15913391 1368.00000000 86.87360382
222.53923035 1368.00000000 86.87360382
224.91932678 1368.00000000 86.87360382
228.29635620 1374.00000000 87.25463104
230.68688965 1374.00000000 87.25463104
-44.54768753 1249.00000000 77.14355469
-42.54426575 1254.00000000 77.45237732
-40.36250687 1254.00000000 77.45237732
-38.18075180 1254.00000000 77.45237732
-35.99899292 1254.00000000 77.45237732
-33.81723785 1254.00000000 77.45237732
-31.50934029 1249.00000000 77.14355469
-29.33628273 1249.00000000 77.14355469
-27.07623291 1245.00000000 76.89649963
-24.81009293 1240.00000000 76.58767700
-22.65269470 1240.00000000 76.58767700
-20.42918015 1236.00000000 76.34062195
-18.21958542 1232.00000000 76.09356689
-16.07610512 1232.00000000 76.09356689
-13.93262482 1232.00000000 76.09356689
-11.74129868 1227.00000000 75.78474426
-9.54388237 1219.00000000 75.29063416
-7.39257288 1214.00000000 74.98181152
-5.28040934 1214.00000000 74.98181152
-3.15780640 1210.00000000 74.73474884
-1.04912245 1206.00000000 74.48769379
1.04912245 1206.00000000 74.48769379
3.13692832 1202.00000000 74.24063873
5.22821379 1202.00000000 74.24063873
7.28905249 1197.00000000 73.93181610
9.37163830 1197.00000000 73.93181610
11.45422554 1197.00000000 73.93181610
13.49157619 1193.00000000 73.68476105
15.56720257 1193.00000000 73.68476105
17.64282990 1193.00000000 73.68476105
19.71845627 1193.00000000 73.68476105
21.79408455 1193.00000000 73.68476105
23.86971092 1193.00000000 73.68476105
25.85834694 1189.00000000 73.43770599
27.92701340 1189.00000000 73.43770599
29.99568176 1189.00000000 73.43770599
31.95648003 1185.00000000 73.19064331
34.01818848 1185.00000000 73.19064331
36.07989502 1185.00000000 73.19064331
38.14160538 1185.00000000 73.19064331
40.20331192 1185.00000000 73.19064331
42.26502228 1185.00000000 73.19064331
44.32672882 1185.00000000 73.19064331
46.38843918 1185.00000000 73.19064331
48.28660202 1181.00000000 72.94358826
50.34135056 1181.00000000 72.94358826
52.39609909 1181.00000000 72.94358826
54.45084763 1181.00000000 72.94358826
56.50559616 1181.00000000 72.94358826
58.56034470 1181.00000000 72.94358826
60.61509323 1181.00000000 72.94358826
62.66984558 1181.00000000 72.94358826
64.72459412 1181.00000000 72.94358826
66.77934265 1181.00000000 72.94358826
68.83409119 1181.00000000 72.94358826
70.88883972 1181.00000000 72.94358826
72.94358826 1181.00000000 72.94358826
74.99833679 1181.00000000 72.94358826
77.05308533 1181.00000000 72.94358826
79.10783386 1181.00000000 72.94358826
81.16258240 1181.00000000 72.94358826
83.21733093 1181.00000000 72.94358826
85.56089783 1185.00000000 73.19064331
87.32682800 1181.00000000 72.94358826
89.68431091 1185.00000000 73.19064331
91.74601746 1185.00000000 73.19064331
93.80773163 1185.00000000 73.19064331
95.86943817 1185.00000000 73.19064331
98.26171875 1189.00000000 73.43770599
100.33038330 1189.00000000 73.43770599
102.74353790 1193.00000000 73.68476105
105.17061615 1197.00000000 73.93181610
107.70121002 1202.00000000 74.24063873
109.79249573 1202.00000000 74.24063873
112.62843323 1210.00000000 74.73474884
114.73363495 1210.00000000 74.73474884
117.22508240 1214.00000000 74.98181152
119.82875061 1219.00000000 75.29063416
121.94961548 1219.00000000 75.29063416
124.47760010 1223.00000000 75.53768921
127.01950073 1227.00000000 75.78474426
129.15428162 1227.00000000 75.78474426
131.82406616 1232.00000000 76.09356689
134.40251160 1236.00000000 76.34062195
136.99485779 1240.00000000 76.58767700
139.71336365 1245.00000000 76.89649963
142.33529663 1249.00000000 77.14355469
145.66534424 1259.00000000 77.76119995
148.32556152 1263.00000000 78.00825500
151.11886597 1268.00000000 78.31707764
153.80865479 1272.00000000 78.56413269
156.63502502 1277.00000000 78.87295532
159.47879028 1282.00000000 79.18177795
162.33995056 1287.00000000 79.49060059
165.09063721 1291.00000000 79.73765564
167.33677673 1291.00000000 79.73765564
170.23970032 1296.00000000 80.04647827
173.16001892 1301.00000000 80.35530090
176.09773254 1306.00000000 80.66412354
178.36996460 1306.00000000 80.66412354
181.33377075 1311.00000000 80.97293854
184.31498718 1316.00000000 81.28176117
186.60461426 1316.00000000 81.28176117
189.61192322 1321.00000000 81.59058380
192.63662720 1326.00000000 81.89940643
194.94366455 1326.00000000 81.89940643
197.99446106 1331.00000000 82.20822906
201.06266785 1336.00000000 82.51705170
204.30050659 1342.00000000 82.88763428
208.17512512 1352.00000000 83.50527954
213.01882935 1368.00000000 84.49350739
215.39894104 1368.00000000 84.49350739
218.73420715 1374.00000000 84.86408997
221.12474060 1374.00000000 84.86408997
223.51527405 1374.00000000 84.86408997
226.72789001 1379.00000000 85.17291260
229.12713623 1379.00000000 85.17291260
231.52636719 1379.00000000 85.17291260
-44.72602081 1254.00000000 75.27062225
-42.54426575 1254.00000000 75.27062225
-40.36250687 1254.00000000 75.27062225
-38.18075180 1254.00000000 75.27062225
-35.99899292 1254.00000000 75.27062225
-33.81723785 1254.00000000 75.27062225
-31.63547897 1254.00000000 75.27062225
-29.33628273 1249.00000000 74.97049713
-27.16322517 1249.00000000 74.97049713
-24.91013336 1245.00000000 74.73040009
-22.65269470 1240.00000000 74.43028259
-20.42918015 1236.00000000 74.19018555
-18.27873993 1236.00000000 74.19018555
-16.07610512 1232.00000000 73.95008850
-13.93262482 1232.00000000 73.95008850
-11.74129868 1227.00000000 73.64996338
-9.57520008 1223.00000000 73.40986633
-7.42301989 1219.00000000 73.16976929
-5.28040934 1214.00000000 72.86964417
-3.15780640 1210.00000000 72.62954712
-1.05260217 1210.00000000 72.62954712
1.04912245 1206.00000000 72.38945007
3.14736748 1206.00000000 72.38945007
5.22821379 1202.00000000 72.14935303
7.28905249 1197.00000000 71.84922791
9.37163830 1197.00000000 71.84922791
11.45422554 1197.00000000 71.84922791
13.53681183 1197.00000000 71.84922791
15.56720257 1193.00000000 71.60913086
17.64282990 1193.00000000 71.60913086
19.65234375 1189.00000000 71.36903381
21.72101021 1189.00000000 71.36903381
23.78967857 1189.00000000 71.36903381
25.85834694 1189.00000000 71.36903381
27.83306313 1185.00000000 71.12893677
29.89477158 1185.00000000 71.12893677
31.95648003 1185.00000000 71.12893677
33.90335846 1181.00000000 70.88883972
35.95810699 1181.00000000 70.88883972
38.01285553 1181.00000000 70.88883972
40.06760406 1181.00000000 70.88883972
42.12235260 1181.00000000 70.88883972
44.17710495 1181.00000000 70.88883972
46.23185349 1181.00000000 70.88883972
48.28660202 1181.00000000 70.88883972
50.34135056 1181.00000000 70.88883972
52.39609909 1181.00000000 70.88883972
54.45084763 1181.00000000 70.88883972
56.50559616 1181.00000000 70.88883972
58.56034470 1181.00000000 70.88883972
60.61509323 1181.00000000 70.88883972
62.66984558 1181.00000000 70.88883972
64.72459412 1181.00000000 70.88883972
66.77934265 1181.00000000 70.88883972
68.83409119 1181.00000000 70.88883972
70.64874268 1177.00000000 70.64874268
72.94358826 1181.00000000 70.88883972
74.99833679 1181.00000000 70.88883972
77.05308533 1181.00000000 70.88883972
79.10783386 1181.00000000 70.88883972
81.16258240 1181.00000000 70.88883972
83.21733093 1181.00000000 70.88883972
85.27207947 1181.00000000 70.88883972
87.32682800 1181.00000000 70.88883972
89.38158417 1181.00000000 70.88883972
91.43633270 1181.00000000 70.88883972
93.80773163 1185.00000000 71.12893677
95.86943817 1185.00000000 71.12893677
98.26171875 1189.00000000 71.36903381
100.33038330 1189.00000000 71.36903381
103.08802795 1197.00000000 71.84922791
105.17061615 1197.00000000 71.84922791
107.70121002 1202.00000000 72.14935303
110.15785980 1206.00000000 72.38945007
112.62843323 1210.00000000 72.62954712
115.11291504 1214.00000000 72.86964417
117.22508240 1214.00000000 72.86964417
119.82875061 1219.00000000 73.16976929
122.34977722 1223.00000000 73.40986633
124.88471985 1227.00000000 73.64996338
127.53710175 1232.00000000 73.95008850
129.68058777 1232.00000000 73.95008850
132.25205994 1236.00000000 74.19018555
134.83746338 1240.00000000 74.43028259
137.54725647 1245.00000000 74.73040009
139.71336365 1245.00000000 74.73040009
142.33529663 1249.00000000 74.97049713
146.12814331 1263.00000000 75.81084442
148.32556152 1263.00000000 75.81084442
151.11886597 1268.00000000 76.11096191
154.41325378 1277.00000000 76.65118408
156.63502502 1277.00000000 76.65118408
159.47879028 1282.00000000 76.95130920
162.33995056 1287.00000000 77.25142670
165.09063721 1291.00000000 77.49152374
167.98486328 1296.00000000 77.79164886
170.89648438 1301.00000000 78.09176636
173.16001892 1301.00000000 78.09176636
176.09773254 1306.00000000 78.39189148
179.05284119 1311.00000000 78.69201660
181.33377075 1311.00000000 78.69201660
184.31498718 1316.00000000 78.99213409
187.31359863 1321.00000000 79.29225922
189.61192322 1321.00000000 79.29225922
192.63662720 1326.00000000 79.59238434
195.67874146 1331.00000000 79.89250183
198.73825073 1336.00000000 80.19262695
201.96563721 1342.00000000 80.55277252
205.06169128 1347.00000000 80.85289001
209.86886597 1363.00000000 81.81328583
213.95312500 1374.00000000 82.47355652
216.34367371 1374.00000000 82.47355652
218.73420715 1374.00000000 82.47355652
-42.54426575 1254.00000000 73.08886719
-40.36250687 1254.00000000 73.08886719
-38.18075180 1254.00000000 73.08886719
-36.14252853 1259.00000000 73.38028717
-33.81723785 1254.00000000 73.08886719
-31.63547897 1254.00000000 73.08886719
-29.45372200 1254.00000000 73.08886719
-27.16322517 1249.00000000 72.79743958
-24.91013336 1245.00000000 72.56430054
-22.74403572 1245.00000000 72.56430054
-20.49529457 1240.00000000 72.27288055
-18.27873993 1236.00000000 72.03974152
-16.07610512 1232.00000000 71.80660248
-13.93262482 1232.00000000 71.80660248
-11.78914356 1232.00000000 71.80660248
-9.57520008 1223.00000000 71.28204346
-7.42301989 1219.00000000 71.04890442
-5.30215693 1219.00000000 71.04890442
-3.16824555 1214.00000000 70.75748444
-1.05260217 1210.00000000 70.52434540
1.05260217 1210.00000000 70.52434540
3.14736748 1206.00000000 70.29120636
5.24561214 1206.00000000 70.29120636
7.31949949 1202.00000000 70.05806732
9.37163830 1197.00000000 69.76664734
11.45422554 1197.00000000 69.76664734
13.53681183 1197.00000000 69.76664734
15.56720257 1193.00000000 69.53350830
17.64282990 1193.00000000 69.53350830
19.65234375 1189.00000000 69.30036926
21.72101021 1189.00000000 69.30036926
23.78967857 1189.00000000 69.30036926
25.77135468 1185.00000000 69.06723022
27.73911095 1181.00000000 68.83409119
29.79385948 1181.00000000 68.83409119
31.84860992 1181.00000000 68.83409119
33.90335846 1181.00000000 68.83409119
35.95810699 1181.00000000 68.83409119
37.88410950 1177.00000000 68.60095215
39.93189621 1177.00000000 68.60095215
41.97968674 1177.00000000 68.60095215
44.02747726 1177.00000000 68.60095215
46.07526779 1177.00000000 68.60095215
48.12305450 1177.00000000 68.60095215
50.17084503 1177.00000000 68.60095215
52.21863556 1177.00000000 68.60095215
54.26642609 1177.00000000 68.60095215
56.31421661 1177.00000000 68.60095215
58.36200333 1177.00000000 68.60095215
60.40979385 1177.00000000 68.60095215
62.45758438 1177.00000000 68.60095215
64.50537109 1177.00000000 68.60095215
66.55316162 1177.00000000 68.60095215
68.60095215 1177.00000000 68.60095215
70.64874268 1177.00000000 68.60095215
72.69653320 1177.00000000 68.60095215
74.74432373 1177.00000000 68.60095215
76.79211426 1177.00000000 68.60095215
78.83989716 1177.00000000 68.60095215
80.88768768 1177.00000000 68.60095215
82.93547821 1177.00000000 68.60095215
84.98326874 1177.00000000 68.60095215
87.03105927 1177.00000000 68.60095215
89.38158417 1181.00000000 68.83409119
91.43633270 1181.00000000 68.83409119
93.49108124 1181.00000000 68.83409119
95.86943817 1185.00000000 69.06723022
97.93114471 1185.00000000 69.06723022
100.33038330 1189.00000000 69.30036926
103.08802795 1197.00000000 69.76664734
105.17061615 1197.00000000 69.76664734
107.70121002 1202.00000000 70.05806732
110.15785980 1206.00000000 70.29120636
112.62843323 1210.00000000 70.52434540
115.11291504 1214.00000000 70.75748444
117.22508240 1214.00000000 70.75748444
119.82875061 1219.00000000 71.04890442
122.74993896 1227.00000000 71.51518250
125.39362335 1232.00000000 71.80660248
127.53710175 1232.00000000 71.80660248
130.10162354 1236.00000000 72.03974152
132.68006897 1240.00000000 72.27288055
135.38116455 1245.00000000 72.56430054
137.98918152 1249.00000000 72.79743958
140.16224670 1249.00000000 72.79743958
142.90509033 1254.00000000 73.08886719
146.12814331 1263.00000000 73.61342621
148.91275024 1268.00000000 73.90484619
151.11886597 1268.00000000 73.90484619
154.41325378 1277.00000000 74.42941284
157.24832153 1282.00000000 74.72083282
160.10078430 1287.00000000 75.01225281
162.84451294 1291.00000000 75.24539185
165.73002625 1296.00000000 75.53681946
167.98486328 1296.00000000 75.53681946
170.89648438 1301.00000000 75.82823944
173.82550049 1306.00000000 76.11966705
176.09773254 1306.00000000 76.11966705
179.05284119 1311.00000000 76.41108704
181.33377075 1311.00000000 76.41108704
184.31498718 1316.00000000 76.70250702
187.31359863 1321.00000000 76.99393463
190.32960510 1326.00000000 77.28535461
192.63662720 1326.00000000 77.28535461
195.67874146 1331.00000000 77.57677460
199.63078308 1342.00000000 78.21791077
202.71812439 1347.00000000 78.50933075
205.82286072 1352.00000000 78.80075073
210.63873291 1368.00000000 79.73330688
213.95312500 1374.00000000 80.08301544
-42.37462997 1249.00000000 70.62438202
-40.20157242 1249.00000000 70.62438202
-38.18075180 1254.00000000 70.90710449
-36.14252853 1259.00000000 71.18983459
-33.81723785 1254.00000000 70.90710449
-31.63547897 1254.00000000 70.90710449
-29.45372200 1254.00000000 70.90710449
-27.16322517 1249.00000000 70.62438202
-24.99016762 1249.00000000 70.62438202
-22.74403572 1245.00000000 70.39820862
-20.49529457 1240.00000000 70.11547852
-18.27873993 1236.00000000 69.88930511
-16.12829971 1236.00000000 69.88930511
-13.93262482 1232.00000000 69.66312408
-11.78914356 1232.00000000 69.66312408
-9.57520008 1223.00000000 69.15422058
-7.44737768 1223.00000000 69.15422058
-5.30215693 1219.00000000 68.92803955
-3.18129420 1219.00000000 68.92803955
-1.05608177 1214.00000000 68.64531708
1.05260217 1210.00000000 68.41913605
3.15780640 1210.00000000 68.41913605
5.24561214 1206.00000000 68.19296265
7.34385729 1206.00000000 68.19296265
9.41078472 1202.00000000 67.96678162
11.50207043 1202.00000000 67.96678162
13.53681183 1197.00000000 67.68405914
15.56720257 1193.00000000 67.45787811
17.64282990 1193.00000000 67.45787811
19.65234375 1189.00000000 67.23169708
21.72101021 1189.00000000 67.23169708
23.70964622 1185.00000000 67.00552368
25.77135468 1185.00000000 67.00552368
27.73911095 1181.00000000 66.77934265
29.79385948 1181.00000000 66.77934265
31.84860992 1181.00000000 66.77934265
33.90335846 1181.00000000 66.77934265
35.83631897 1177.00000000 66.55316162
37.88410950 1177.00000000 66.55316162
39.93189621 1177.00000000 66.55316162
41.97968674 1177.00000000 66.55316162
44.02747726 1177.00000000 66.55316162
46.07526779 1177.00000000 66.55316162
48.12305450 1177.00000000 66.55316162
50.17084503 1177.00000000 66.55316162
52.21863556 1177.00000000 66.55316162
54.26642609 1177.00000000 66.55316162
56.31421661 1177.00000000 66.55316162
58.16366196 1173.00000000 66.32698059
60.20449448 1173.00000000 66.32698059
62.24532318 1173.00000000 66.32698059
64.50537109 1177.00000000 66.55316162
66.55316162 1177.00000000 66.55316162
68.60095215 1177.00000000 66.55316162
70.40864563 1173.00000000 66.32698059
72.69653320 1177.00000000 66.55316162
74.74432373 1177.00000000 66.55316162
76.79211426 1177.00000000 66.55316162
78.83989716 1177.00000000 66.55316162
80.88768768 1177.00000000 66.55316162
82.93547821 1177.00000000 66.55316162
84.98326874 1177.00000000 66.55316162
87.03105927 1177.00000000 66.55316162
89.07884979 1177.00000000 66.55316162
91.43633270 1181.00000000 66.77934265
93.49108124 1181.00000000 66.77934265
95.86943817 1185.00000000 67.00552368
98.26171875 1189.00000000 67.23169708
100.33038330 1189.00000000 67.23169708
103.08802795 1197.00000000 67.68405914
105.60992432 1202.00000000 67.96678162
108.05961609 1206.00000000 68.19296265
110.15785980 1206.00000000 68.19296265
112.62843323 1210.00000000 68.41913605
115.11291504 1214.00000000 68.64531708
117.70788574 1219.00000000 68.92803955
120.22195435 1223.00000000 69.15422058
122.74993896 1227.00000000 69.38040161
125.39362335 1232.00000000 69.66312408
127.95118713 1236.00000000 69.88930511
130.52265930 1240.00000000 70.11547852
133.21507263 1245.00000000 70.39820862
135.38116455 1245.00000000 70.39820862
137.98918152 1249.00000000 70.62438202
140.72334290 1254.00000000 70.90710449
143.47489929 1259.00000000 71.18983459
146.12814331 1263.00000000 71.41600800
148.91275024 1268.00000000 71.69873810
151.59558105 1272.00000000 71.92491150
154.41325378 1277.00000000 72.20763397
157.24832153 1282.00000000 72.49036407
160.10078430 1287.00000000 72.77308655
162.84451294 1291.00000000 72.99925995
165.73002625 1296.00000000 73.28199005
167.98486328 1296.00000000 73.28199005
170.89648438 1301.00000000 73.56471252
173.82550049 1306.00000000 73.84743500
176.77191162 1311.00000000 74.13015747
179.05284119 1311.00000000 74.13015747
182.02536011 1316.00000000 74.41287994
185.01527405 1321.00000000 74.69560242
187.31359863 1321.00000000 74.69560242
190.32960510 1326.00000000 74.97833252
193.36300659 1331.00000000 75.26105499
196.41381836 1336.00000000 75.54377747
200.37455750 1347.00000000 76.16577148
203.47061157 1352.00000000 76.44849396
208.25863647 1368.00000000 77.35321045
-40.36250687 1254.00000000 68.72534943
-38.45477676 1263.00000000 69.21859741
-36.14252853 1259.00000000 68.99937439
-33.95207214 1259.00000000 68.99937439
-31.76161766 1259.00000000 68.99937439
-29.45372200 1254.00000000 68.72534943
-27.27196503 1254.00000000 68.72534943
-24.99016762 1249.00000000 68.45132446
-22.74403572 1245.00000000 68.23210907
-20.57793617 1245.00000000 68.23210907
-18.27873993 1236.00000000 67.73886108
-16.12829971 1236.00000000 67.73886108
-13.97786045 1236.00000000 67.73886108
-11.78914356 1232.00000000 67.51964569
-9.60651684 1227.00000000 67.24562073
-7.44737768 1223.00000000 67.02639771
-5.31955528 1223.00000000 67.02639771
-3.18129420 1219.00000000 66.80718231
-1.05608177 1214.00000000 66.53315735
1.05608177 1214.00000000 66.53315735
3.15780640 1210.00000000 66.31393433
5.26301050 1210.00000000 66.31393433
7.36821508 1210.00000000 66.31393433
9.44210243 1206.00000000 66.09471893
11.50207043 1202.00000000 65.87549591
13.59335613 1202.00000000 65.87549591
15.61939812 1197.00000000 65.60147095
17.64282990 1193.00000000 65.38224792
19.71845627 1193.00000000 65.38224792
21.72101021 1189.00000000 65.16303253
23.78967857 1189.00000000 65.16303253
25.77135468 1185.00000000 64.94380951
27.83306313 1185.00000000 64.94380951
29.79385948 1181.00000000 64.72459412
31.84860992 1181.00000000 64.72459412
33.78852844 1177.00000000 64.50537109
35.83631897 1177.00000000 64.50537109
37.88410950 1177.00000000 64.50537109
39.93189621 1177.00000000 64.50537109
41.97968674 1177.00000000 64.50537109
43.87784958 1173.00000000 64.28615570
45.91868210 1173.00000000 64.28615570
47.95951080 1173.00000000 64.28615570
50.00034332 1173.00000000 64.28615570
52.04117203 1173.00000000 64.28615570
54.08200073 1173.00000000 64.28615570
56.12283325 1173.00000000 64.28615570
57.96532059 1169.00000000 64.06693268
59.99919128 1169.00000000 64.06693268
62.03306198 1169.00000000 64.06693268
64.28615570 1173.00000000 64.28615570
66.32698059 1173.00000000 64.28615570
68.36781311 1173.00000000 64.28615570
70.40864563 1173.00000000 64.28615570
72.44947815 1173.00000000 64.28615570
74.74432373 1177.00000000 64.50537109
76.53113556 1173.00000000 64.28615570
78.57196808 1173.00000000 64.28615570
80.61279297 1173.00000000 64.28615570
82.93547821 1177.00000000 64.50537109
84.98326874 1177.00000000 64.50537109
87.03105927 1177.00000000 64.50537109
89.07884979 1177.00000000 64.50537109
91.43633270 1181.00000000 64.72459412
93.49108124 1181.00000000 64.72459412
95.86943817 1185.00000000 64.94380951
98.26171875 1189.00000000 65.16303253
100.66790771 1193.00000000 65.38224792
103.08802795 1197.00000000 65.60147095
105.60992432 1202.00000000 65.87549591
108.05961609 1206.00000000 66.09471893
110.52322388 1210.00000000 66.31393433
113.00075531 1214.00000000 66.53315735
115.11291504 1214.00000000 66.53315735
117.70788574 1219.00000000 66.80718231
120.22195435 1223.00000000 67.02639771
123.25014496 1232.00000000 67.51964569
125.80074310 1236.00000000 67.73886108
128.36526489 1240.00000000 67.95808411
130.52265930 1240.00000000 67.95808411
133.21507263 1245.00000000 68.23210907
135.81611633 1249.00000000 68.45132446
137.98918152 1249.00000000 68.45132446
140.72334290 1254.00000000 68.72534943
143.47489929 1259.00000000 68.99937439
146.70663452 1268.00000000 69.49262238
148.91275024 1268.00000000 69.49262238
151.59558105 1272.00000000 69.71183777
154.41325378 1277.00000000 69.98586273
157.24832153 1282.00000000 70.25988770
160.10078430 1287.00000000 70.53391266
162.84451294 1291.00000000 70.75313568
165.73002625 1296.00000000 71.02716064
167.98486328 1296.00000000 71.02716064
170.89648438 1301.00000000 71.30117798
173.82550049 1306.00000000 71.57520294
176.77191162 1311.00000000 71.84922791
179.73573303 1316.00000000 72.12325287
182.02536011 1316.00000000 72.12325287
185.01527405 1321.00000000 72.39727783
188.02258301 1326.00000000 72.67130280
190.32960510 1326.00000000 72.67130280
194.08940125 1336.00000000 73.21935272
196.41381836 1336.00000000 73.21935272
201.11834717 1352.00000000 74.09622955
203.47061157 1352.00000000 74.09622955
207.49746704 1363.00000000 74.69908905
-40.52344131 1259.00000000 66.80892181
-38.45477676 1263.00000000 67.02117920
-36.25735855 1263.00000000 67.02117920
-34.05994415 1263.00000000 67.02117920
-31.86252785 1263.00000000 67.02117920
-29.66511154 1263.00000000 67.02117920
-27.38070488 1259.00000000 66.80892181
-25.09020805 1254.00000000 66.54359436
-22.81710815 1249.00000000 66.27826691
-20.64405060 1249.00000000 66.27826691
-18.41183853 1245.00000000 66.06600952
-16.18049622 1240.00000000 65.80068207
-13.97786045 1236.00000000 65.58842468
-11.82742023 1236.00000000 65.58842468
-9.60651684 1227.00000000 65.11083984
-7.47173548 1227.00000000 65.11083984
-5.31955528 1223.00000000 64.89857483
-3.18129420 1219.00000000 64.68631744
-1.06043136 1219.00000000 64.68631744
1.05608177 1214.00000000 64.42098999
3.16824555 1214.00000000 64.42098999
5.26301050 1210.00000000 64.20873260
7.36821508 1210.00000000 64.20873260
9.44210243 1206.00000000 63.99647141
11.54034710 1206.00000000 63.99647141
13.59335613 1202.00000000 63.78421021
15.61939812 1197.00000000 63.51888657
17.64282990 1193.00000000 63.30662537
19.71845627 1193.00000000 63.30662537
21.72101021 1189.00000000 63.09436417
23.78967857 1189.00000000 63.09436417
25.77135468 1185.00000000 62.88210297
27.83306313 1185.00000000 62.88210297
29.79385948 1181.00000000 62.66984558
31.84860992 1181.00000000 62.66984558
33.78852844 1177.00000000 62.45758438
35.83631897 1177.00000000 62.45758438
37.88410950 1177.00000000 62.45758438
39.93189621 1177.00000000 62.45758438
41.97968674 1177.00000000 62.45758438
43.87784958 1173.00000000 62.24532318
45.91868210 1173.00000000 62.24532318
47.79596710 1169.00000000 62.03306198
49.82983780 1169.00000000 62.03306198
51.86370850 1169.00000000 62.03306198
53.89757919 1169.00000000 62.03306198
55.93144989 1169.00000000 62.03306198
57.76697922 1165.00000000 61.82080460
59.79389191 1165.00000000 61.82080460
61.82080460 1165.00000000 61.82080460
64.06693268 1169.00000000 62.03306198
66.10080719 1169.00000000 62.03306198
68.13467407 1169.00000000 62.03306198
70.16854858 1169.00000000 62.03306198
72.20241547 1169.00000000 62.03306198
74.49030304 1173.00000000 62.24532318
76.27015686 1169.00000000 62.03306198
78.30403137 1169.00000000 62.03306198
80.61279297 1173.00000000 62.24532318
82.65362549 1173.00000000 62.24532318
84.98326874 1177.00000000 62.45758438
87.03105927 1177.00000000 62.45758438
89.07884979 1177.00000000 62.45758438
91.43633270 1181.00000000 62.66984558
93.49108124 1181.00000000 62.66984558
95.86943817 1185.00000000 62.88210297
98.26171875 1189.00000000 63.09436417
100.66790771 1193.00000000 63.30662537
103.08802795 1197.00000000 63.51888657
105.60992432 1202.00000000 63.78421021
108.41802216 1210.00000000 64.20873260
110.52322388 1210.00000000 64.20873260
113.00075531 1214.00000000 64.42098999
115.58702087 1219.00000000 64.68631744
118.09413147 1223.00000000 64.89857483
120.61515808 1227.00000000 65.11083984
123.25014496 1232.00000000 65.37615967
125.80074310 1236.00000000 65.58842468
128.36526489 1240.00000000 65.80068207
131.04896545 1245.00000000 66.06600952
133.64306641 1249.00000000 66.27826691
135.81611633 1249.00000000 66.27826691
138.54158020 1254.00000000 66.54359436
141.28443909 1259.00000000 66.80892181
143.93072510 1263.00000000 67.02117920
146.70663452 1268.00000000 67.28650665
149.38250732 1272.00000000 67.49876404
152.19148254 1277.00000000 67.76409149
155.01785278 1282.00000000 68.02941895
157.24832153 1282.00000000 68.02941895
160.10078430 1287.00000000 68.29473877
162.84451294 1291.00000000 68.50700378
165.73002625 1296.00000000 68.77232361
168.63294983 1301.00000000 69.03765106
170.89648438 1301.00000000 69.03765106
173.82550049 1306.00000000 69.30297852
176.77191162 1311.00000000 69.56830597
179.73573303 1316.00000000 69.83362579
182.71694946 1321.00000000 70.09895325
185.71556091 1326.00000000 70.36428070
189.44055176 1336.00000000 70.89492798
192.62619019 1342.00000000 71.21331787
195.68743896 1347.00000000 71.47864532
198.76608276 1352.00000000 71.74397278
202.01087952 1358.00000000 72.06236267
205.12605286 1363.00000000 72.32768250
207.49746704 1363.00000000 72.32768250
-40.81312561 1268.00000000 65.08039093
-38.60700989 1268.00000000 65.08039093
-36.40089417 1268.00000000 65.08039093
-34.19478226 1268.00000000 65.08039093
-31.98866653 1268.00000000 65.08039093
-29.66511154 1263.00000000 64.82376099
-27.46769714 1263.00000000 64.82376099
-25.09020805 1254.00000000 64.36183929
-22.90845108 1254.00000000 64.36183929
-20.64405060 1249.00000000 64.10520935
-18.47099304 1249.00000000 64.10520935
-16.18049622 1240.00000000 63.64328384
-13.97786045 1236.00000000 63.43798065
-11.82742023 1236.00000000 63.43798065
-9.64566326 1232.00000000 63.23268127
-7.47173548 1227.00000000 62.97605515
-5.33695364 1227.00000000 62.97605515
-3.19173336 1223.00000000 62.77075577
-1.06043136 1219.00000000 62.56545258
1.05608177 1214.00000000 62.30882645
3.16824555 1214.00000000 62.30882645
5.26301050 1210.00000000 62.10352707
7.36821508 1210.00000000 62.10352707
9.47341919 1210.00000000 62.10352707
11.54034710 1206.00000000 61.89822388
13.59335613 1202.00000000 61.69292450
15.61939812 1197.00000000 61.43629837
17.64282990 1193.00000000 61.23099899
19.71845627 1193.00000000 61.23099899
21.79408455 1193.00000000 61.23099899
23.78967857 1189.00000000 61.02569580
25.85834694 1189.00000000 61.02569580
27.83306313 1185.00000000 60.82039642
29.89477158 1185.00000000 60.82039642
31.84860992 1181.00000000 60.61509323
33.78852844 1177.00000000 60.40979385
35.83631897 1177.00000000 60.40979385
37.88410950 1177.00000000 60.40979385
39.79619217 1173.00000000 60.20449448
41.83702087 1173.00000000 60.20449448
43.87784958 1173.00000000 60.20449448
45.76209641 1169.00000000 59.99919128
47.79596710 1169.00000000 59.99919128
49.82983780 1169.00000000 59.99919128
51.68624496 1165.00000000 59.79389191
53.71315765 1165.00000000 59.79389191
55.74006653 1165.00000000 59.79389191
57.76697922 1165.00000000 59.79389191
59.79389191 1165.00000000 59.79389191
61.82080460 1165.00000000 59.79389191
63.84771347 1165.00000000 59.79389191
65.87462616 1165.00000000 59.79389191
67.90153503 1165.00000000 59.79389191
69.92845154 1165.00000000 59.79389191
71.95536041 1165.00000000 59.79389191
74.23628998 1169.00000000 59.99919128
76.27015686 1169.00000000 59.99919128
78.30403137 1169.00000000 59.99919128
80.33789825 1169.00000000 59.99919128
82.65362549 1173.00000000 60.20449448
84.98326874 1177.00000000 60.40979385
87.03105927 1177.00000000 60.40979385
89.07884979 1177.00000000 60.40979385
91.43633270 1181.00000000 60.61509323
93.80773163 1185.00000000 60.82039642
96.19304657 1189.00000000 61.02569580
98.59228516 1193.00000000 61.23099899
101.00543976 1197.00000000 61.43629837
103.51863861 1202.00000000 61.69292450
105.96137238 1206.00000000 61.89822388
108.41802216 1210.00000000 62.10352707
110.52322388 1210.00000000 62.10352707
113.00075531 1214.00000000 62.30882645
115.58702087 1219.00000000 62.56545258
118.09413147 1223.00000000 62.77075577
121.10665894 1232.00000000 63.23268127
123.65030670 1236.00000000 63.43798065
126.20787048 1240.00000000 63.64328384
128.36526489 1240.00000000 63.64328384
131.04896545 1245.00000000 63.89990997
133.64306641 1249.00000000 64.10520935
135.81611633 1249.00000000 64.10520935
138.54158020 1254.00000000 64.36183929
141.28443909 1259.00000000 64.61846161
143.93072510 1263.00000000 64.82376099
146.70663452 1268.00000000 65.08039093
149.38250732 1272.00000000 65.28569031
151.59558105 1272.00000000 65.28569031
155.01785278 1282.00000000 65.79894257
158.35224915 1291.00000000 66.26087189
160.59837341 1291.00000000 66.26087189
163.47520447 1296.00000000 66.51749420
166.36943054 1301.00000000 66.77412415
168.63294983 1301.00000000 66.77412415
171.55326843 1306.00000000 67.03074646
175.15647888 1316.00000000 67.54399872
178.12028503 1321.00000000 67.80062866
180.41862488 1321.00000000 67.80062866
184.10011292 1331.00000000 68.31388092
