30.67508888 1306.00000000 96.56972504
32.94731522 1306.00000000 96.56972504
35.21954727 1306.00000000 96.56972504
37.49177551 1306.00000000 96.56972504
39.76400375 1306.00000000 96.56972504
42.03623199 1306.00000000 96.56972504
44.47809601 1311.00000000 96.93943787
46.58068848 1306.00000000 96.56972504
48.85291672 1306.00000000 96.56972504
51.12514877 1306.00000000 96.56972504
53.39737701 1306.00000000 96.56972504
55.66960526 1306.00000000 96.56972504
57.72000504 1301.00000000 96.20000458
59.98353195 1301.00000000 96.20000458
62.24706268 1301.00000000 96.20000458
64.75852203 1306.00000000 96.56972504
67.03074646 1306.00000000 96.56972504
69.56830597 1311.00000000 96.93943787
71.84922791 1311.00000000 96.93943787
74.13015747 1311.00000000 96.93943787
76.41108704 1311.00000000 96.93943787
78.69201660 1311.00000000 96.93943787
80.97293854 1311.00000000 96.93943787
83.25386810 1311.00000000 96.93943787
85.20858002 1306.00000000 96.56972504
87.81572723 1311.00000000 96.93943787
90.09665680 1311.00000000 96.93943787
92.37757874 1311.00000000 96.93943787
95.01952362 1316.00000000 97.30915070
97.30915070 1316.00000000 97.30915070
99.59877777 1316.00000000 97.30915070
101.50129700 1311.00000000 96.93943787
103.78221893 1311.00000000 96.93943787
105.65863800 1306.00000000 96.56972504
108.34407806 1311.00000000 96.93943787
110.20309448 1306.00000000 96.56972504
112.47532654 1306.00000000 96.56972504
114.74755096 1306.00000000 96.56972504
117.01978302 1306.00000000 96.56972504
119.29200745 1306.00000000 96.56972504
121.56423950 1306.00000000 96.56972504
123.83646393 1306.00000000 96.56972504
126.10869598 1306.00000000 96.56972504
128.38092041 1306.00000000 96.56972504
131.65356445 1316.00000000 97.30915070
133.94319153 1316.00000000 97.30915070
136.23281860 1316.00000000 97.30915070
138.52244568 1316.00000000 97.30915070
140.81207275 1316.00000000 97.30915070
143.10169983 1316.00000000 97.30915070
145.39132690 1316.00000000 97.30915070
147.11985779 1311.00000000 96.93943787
149.40078735 1311.00000000 96.93943787
151.10321045 1306.00000000 96.56972504
153.37544250 1306.00000000 96.56972504
155.64767456 1306.00000000 96.56972504
157.91989136 1306.00000000 96.56972504
160.80541992 1311.00000000 96.93943787
163.08634949 1311.00000000 96.93943787
165.36727905 1311.00000000 96.93943787
167.00881958 1306.00000000 96.56972504
169.28103638 1306.00000000 96.56972504
171.55326843 1306.00000000 96.56972504
173.82550049 1306.00000000 96.56972504
176.09773254 1306.00000000 96.56972504
179.05284119 1311.00000000 96.93943787
181.33377075 1311.00000000 96.93943787
183.61470032 1311.00000000 96.93943787
185.89562988 1311.00000000 96.93943787
188.17655945 1311.00000000 96.93943787
190.45748901 1311.00000000 96.93943787
192.73841858 1311.00000000 96.93943787
194.27555847 1306.00000000 96.56972504
196.54779053 1306.00000000 96.56972504
198.82002258 1306.00000000 96.56972504
201.09223938 1306.00000000 96.56972504
203.36447144 1306.00000000 96.56972504
207.21125793 1316.00000000 97.30915070
209.50088501 1316.00000000 97.30915070
211.79051208 1316.00000000 97.30915070
214.08013916 1316.00000000 97.30915070
216.36976624 1316.00000000 97.30915070
216.99784851 1306.00000000 96.56972504
219.27008057 1306.00000000 96.56972504
222.39047241 1311.00000000 96.93943787
224.67140198 1311.00000000 96.93943787
226.95233154 1311.00000000 96.93943787
229.23326111 1311.00000000 96.93943787
231.51419067 1311.00000000 96.93943787
233.79512024 1311.00000000 96.93943787
236.07604980 1311.00000000 96.93943787
237.44790649 1306.00000000 96.56972504
239.72013855 1306.00000000 96.56972504
241.99237061 1306.00000000 96.56972504
244.26458740 1306.00000000 96.56972504
246.53681946 1306.00000000 96.56972504
250.71417236 1316.00000000 97.30915070
252.04254150 1311.00000000 96.93943787
255.29342651 1316.00000000 97.30915070
257.58306885 1316.00000000 97.30915070
259.87268066 1316.00000000 97.30915070
262.16232300 1316.00000000 97.30915070
265.45669556 1321.00000000 97.67887115
267.75500488 1321.00000000 97.67887115
270.05334473 1321.00000000 97.67887115
272.35168457 1321.00000000 97.67887115
275.68954468 1326.00000000 98.04858398
277.99658203 1326.00000000 98.04858398
280.30358887 1326.00000000 98.04858398
282.61062622 1326.00000000 98.04858398
284.91766357 1326.00000000 98.04858398
288.30773926 1331.00000000 98.41829681
289.53170776 1326.00000000 98.04858398
291.83871460 1326.00000000 98.04858398
295.25491333 1331.00000000 98.41829681
298.68847656 1336.00000000 98.78801727
299.88635254 1331.00000000 98.41829681
303.33731079 1336.00000000 98.78801727
305.66174316 1336.00000000 98.78801727
309.36935425 1342.00000000 99.23167419
311.70419312 1342.00000000 99.23167419
315.20910645 1347.00000000 99.60138702
317.55267334 1347.00000000 99.60138702
319.89624023 1347.00000000 99.60138702
323.43594360 1352.00000000 99.97110748
325.78820801 1352.00000000 99.97110748
329.59671021 1358.00000000 100.41476440
331.95941162 1358.00000000 100.41476440
335.55303955 1363.00000000 100.78447723
337.92443848 1363.00000000 100.78447723
340.29583740 1363.00000000 100.78447723
343.92425537 1368.00000000 101.15419769
346.30435181 1368.00000000 101.15419769
348.68447876 1368.00000000 101.15419769
352.60430908 1374.00000000 101.59785461
354.99484253 1374.00000000 101.59785461
357.38540649 1374.00000000 101.59785461
361.08517456 1379.00000000 101.96756744
363.48440552 1379.00000000 101.96756744
365.88363647 1379.00000000 101.96756744
368.28286743 1379.00000000 101.96756744
370.68209839 1379.00000000 101.96756744
-3.38224554 1296.00000000 93.57546234
-1.12741518 1296.00000000 93.57546234
1.13176477 1301.00000000 93.93647766
3.39529443 1301.00000000 93.93647766
5.65882397 1301.00000000 93.93647766
7.95280075 1306.00000000 94.29749298
10.22502899 1306.00000000 94.29749298
12.49725819 1306.00000000 94.29749298
14.76948738 1306.00000000 94.29749298
17.04171562 1306.00000000 94.29749298
19.31394386 1306.00000000 94.29749298
21.50353050 1301.00000000 93.93647766
23.76706123 1301.00000000 93.93647766
26.03059006 1301.00000000 93.93647766
28.40285873 1306.00000000 94.29749298
30.55764961 1301.00000000 93.93647766
32.82117844 1301.00000000 93.93647766
35.08470917 1301.00000000 93.93647766
37.34823608 1301.00000000 93.93647766
39.61176682 1301.00000000 93.93647766
42.03623199 1306.00000000 94.29749298
44.30846024 1306.00000000 94.29749298
46.40235519 1301.00000000 93.93647766
48.85291672 1306.00000000 94.29749298
51.12514877 1306.00000000 94.29749298
53.19294357 1301.00000000 93.93647766
55.45647430 1301.00000000 93.93647766
57.72000504 1301.00000000 93.93647766
59.98353195 1301.00000000 93.93647766
62.24706268 1301.00000000 93.93647766
64.75852203 1306.00000000 94.29749298
67.03074646 1306.00000000 94.29749298
69.30297852 1306.00000000 94.29749298
71.57520294 1306.00000000 94.29749298
73.84743500 1306.00000000 94.29749298
76.11966705 1306.00000000 94.29749298
78.39189148 1306.00000000 94.29749298
80.66412354 1306.00000000 94.29749298
82.93634796 1306.00000000 94.29749298
85.20858002 1306.00000000 94.29749298
87.48080444 1306.00000000 94.29749298
89.75303650 1306.00000000 94.29749298
92.37757874 1311.00000000 94.65850830
94.65850830 1311.00000000 94.65850830
96.93943787 1311.00000000 94.65850830
99.22036743 1311.00000000 94.65850830
101.50129700 1311.00000000 94.65850830
103.38640594 1306.00000000 94.29749298
105.65863800 1306.00000000 94.29749298
107.93086243 1306.00000000 94.29749298
110.20309448 1306.00000000 94.29749298
112.04471588 1301.00000000 93.93647766
114.30824280 1301.00000000 93.93647766
116.57176971 1301.00000000 93.93647766
118.83530426 1301.00000000 93.93647766
121.09883118 1301.00000000 93.93647766
123.36235809 1301.00000000 93.93647766
125.62589264 1301.00000000 93.93647766
127.88941956 1301.00000000 93.93647766
130.65315247 1306.00000000 94.29749298
132.92538452 1306.00000000 94.29749298
135.71520996 1311.00000000 94.65850830
137.99613953 1311.00000000 94.65850830
140.27706909 1311.00000000 94.65850830
142.55799866 1311.00000000 94.65850830
144.83892822 1311.00000000 94.65850830
146.55876160 1306.00000000 94.29749298
148.83097839 1306.00000000 94.29749298
151.10321045 1306.00000000 94.29749298
153.37544250 1306.00000000 94.29749298
155.64767456 1306.00000000 94.29749298
157.91989136 1306.00000000 94.29749298
160.19212341 1306.00000000 94.29749298
162.46435547 1306.00000000 94.29749298
164.73658752 1306.00000000 94.29749298
167.00881958 1306.00000000 94.29749298
169.28103638 1306.00000000 94.29749298
171.55326843 1306.00000000 94.29749298
173.82550049 1306.00000000 94.29749298
175.42353821 1301.00000000 93.93647766
178.36996460 1306.00000000 94.29749298
179.95060730 1301.00000000 93.93647766
182.21412659 1301.00000000 93.93647766
184.47766113 1301.00000000 93.93647766
186.74119568 1301.00000000 93.93647766
189.00471497 1301.00000000 93.93647766
191.26824951 1301.00000000 93.93647766
193.53178406 1301.00000000 93.93647766
196.54779053 1306.00000000 94.29749298
198.82002258 1306.00000000 94.29749298
201.86212158 1311.00000000 94.65850830
204.14305115 1311.00000000 94.65850830
205.63670349 1306.00000000 94.29749298
208.70491028 1311.00000000 94.65850830
210.98583984 1311.00000000 94.65850830
212.45338440 1306.00000000 94.29749298
214.72561646 1306.00000000 94.29749298
216.99784851 1306.00000000 94.29749298
219.27008057 1306.00000000 94.29749298
221.54229736 1306.00000000 94.29749298
223.81452942 1306.00000000 94.29749298
226.08676147 1306.00000000 94.29749298
228.35899353 1306.00000000 94.29749298
230.63122559 1306.00000000 94.29749298
232.90344238 1306.00000000 94.29749298
235.17567444 1306.00000000 94.29749298
237.44790649 1306.00000000 94.29749298
239.72013855 1306.00000000 94.29749298
241.99237061 1306.00000000 94.29749298
244.26458740 1306.00000000 94.29749298
246.53681946 1306.00000000 94.29749298
249.76161194 1311.00000000 94.65850830
252.04254150 1311.00000000 94.65850830
255.29342651 1316.00000000 95.01952362
257.58306885 1316.00000000 95.01952362
259.87268066 1316.00000000 95.01952362
262.16232300 1316.00000000 95.01952362
265.45669556 1321.00000000 95.38054657
267.75500488 1321.00000000 95.38054657
270.05334473 1321.00000000 95.38054657
272.35168457 1321.00000000 95.38054657
275.68954468 1326.00000000 95.74156189
277.99658203 1326.00000000 95.74156189
280.30358887 1326.00000000 95.74156189
282.61062622 1326.00000000 95.74156189
284.91766357 1326.00000000 95.74156189
288.30773926 1331.00000000 96.10257721
289.53170776 1326.00000000 95.74156189
291.83871460 1326.00000000 95.74156189
296.36404419 1336.00000000 96.46359253
298.68847656 1336.00000000 96.46359253
301.01290894 1336.00000000 96.46359253
303.33731079 1336.00000000 96.46359253
307.03448486 1342.00000000 96.89681244
309.36935425 1342.00000000 96.89681244
311.70419312 1342.00000000 96.89681244
315.20910645 1347.00000000 97.25782776
317.55267334 1347.00000000 97.25782776
321.08367920 1352.00000000 97.61884308
324.87130737 1358.00000000 98.05206299
327.23400879 1358.00000000 98.05206299
329.59671021 1358.00000000 98.05206299
333.18164062 1363.00000000 98.41307831
335.55303955 1363.00000000 98.41307831
337.92443848 1363.00000000 98.41307831
341.54415894 1368.00000000 98.77409363
343.92425537 1368.00000000 98.77409363
346.30435181 1368.00000000 98.77409363
348.68447876 1368.00000000 98.77409363
352.60430908 1374.00000000 99.20731354
354.99484253 1374.00000000 99.20731354
358.68591309 1379.00000000 99.56833649
361.08517456 1379.00000000 99.56833649
365.06591797 1385.00000000 100.00155640
367.47558594 1385.00000000 100.00155640
369.88525391 1385.00000000 100.00155640
372.29495239 1385.00000000 100.00155640
-5.65882397 1301.00000000 91.67295074
-3.39529443 1301.00000000 91.67295074
-1.13176477 1301.00000000 91.67295074
1.13176477 1301.00000000 91.67295074
3.39529443 1301.00000000 91.67295074
5.65882397 1301.00000000 91.67295074
7.92235327 1301.00000000 91.67295074
10.22502899 1306.00000000 92.02526855
12.44941235 1301.00000000 91.67295074
14.71294212 1301.00000000 91.67295074
16.97647095 1301.00000000 91.67295074
19.24000168 1301.00000000 91.67295074
21.50353050 1301.00000000 91.67295074
23.76706123 1301.00000000 91.67295074
25.93054962 1296.00000000 91.32063293
28.29411888 1301.00000000 91.67295074
30.44021034 1296.00000000 91.32063293
32.69504166 1296.00000000 91.32063293
35.08470917 1301.00000000 91.67295074
37.34823608 1301.00000000 91.67295074
39.61176682 1301.00000000 91.67295074
41.87529755 1301.00000000 91.67295074
44.13882828 1301.00000000 91.67295074
46.40235519 1301.00000000 91.67295074
48.66588593 1301.00000000 91.67295074
50.92941666 1301.00000000 91.67295074
53.19294357 1301.00000000 91.67295074
55.45647430 1301.00000000 91.67295074
57.72000504 1301.00000000 91.67295074
59.98353195 1301.00000000 91.67295074
62.00783539 1296.00000000 91.32063293
64.51058960 1301.00000000 91.67295074
66.77412415 1301.00000000 91.67295074
69.03765106 1301.00000000 91.67295074
71.30117798 1301.00000000 91.67295074
73.56471252 1301.00000000 91.67295074
75.82823944 1301.00000000 91.67295074
78.09176636 1301.00000000 91.67295074
80.35530090 1301.00000000 91.67295074
82.61882782 1301.00000000 91.67295074
84.88236237 1301.00000000 91.67295074
87.14588928 1301.00000000 91.67295074
89.40941620 1301.00000000 91.67295074
92.02526855 1306.00000000 92.02526855
94.29749298 1306.00000000 92.02526855
96.56972504 1306.00000000 92.02526855
98.84194946 1306.00000000 92.02526855
101.11418152 1306.00000000 92.02526855
103.38640594 1306.00000000 92.02526855
105.65863800 1306.00000000 92.02526855
107.93086243 1306.00000000 92.02526855
109.78118134 1301.00000000 91.67295074
112.04471588 1301.00000000 91.67295074
114.30824280 1301.00000000 91.67295074
116.57176971 1301.00000000 91.67295074
118.83530426 1301.00000000 91.67295074
121.09883118 1301.00000000 91.67295074
123.36235809 1301.00000000 91.67295074
125.14308929 1296.00000000 91.32063293
127.88941956 1301.00000000 91.67295074
129.65274048 1296.00000000 91.32063293
131.90757751 1296.00000000 91.32063293
134.68000793 1301.00000000 91.67295074
137.46983337 1306.00000000 92.02526855
139.74206543 1306.00000000 92.02526855
142.01429749 1306.00000000 92.02526855
144.28652954 1306.00000000 92.02526855
145.99765015 1301.00000000 91.67295074
148.83097839 1306.00000000 92.02526855
150.52471924 1301.00000000 91.67295074
152.78823853 1301.00000000 91.67295074
155.05177307 1301.00000000 91.67295074
157.31530762 1301.00000000 91.67295074
159.57884216 1301.00000000 91.67295074
161.84236145 1301.00000000 91.67295074
164.10589600 1301.00000000 91.67295074
166.36943054 1301.00000000 91.67295074
169.28103638 1306.00000000 92.02526855
171.55326843 1306.00000000 92.02526855
173.16001892 1301.00000000 91.67295074
176.09773254 1306.00000000 92.02526855
178.36996460 1306.00000000 92.02526855
179.95060730 1301.00000000 91.67295074
182.21412659 1301.00000000 91.67295074
184.47766113 1301.00000000 91.67295074
186.74119568 1301.00000000 91.67295074
189.00471497 1301.00000000 91.67295074
191.26824951 1301.00000000 91.67295074
193.53178406 1301.00000000 91.67295074
195.79530334 1301.00000000 91.67295074
198.05883789 1301.00000000 91.67295074
201.09223938 1306.00000000 92.02526855
203.36447144 1306.00000000 92.02526855
205.63670349 1306.00000000 92.02526855
207.90893555 1306.00000000 92.02526855
210.18116760 1306.00000000 92.02526855
213.26676941 1311.00000000 92.37757874
213.90354919 1301.00000000 91.67295074
216.16706848 1301.00000000 91.67295074
218.43060303 1301.00000000 91.67295074
220.69413757 1301.00000000 91.67295074
223.81452942 1306.00000000 92.02526855
226.08676147 1306.00000000 92.02526855
228.35899353 1306.00000000 92.02526855
230.63122559 1306.00000000 92.02526855
232.90344238 1306.00000000 92.02526855
235.17567444 1306.00000000 92.02526855
237.44790649 1306.00000000 92.02526855
239.72013855 1306.00000000 92.02526855
241.99237061 1306.00000000 92.02526855
244.26458740 1306.00000000 92.02526855
246.53681946 1306.00000000 92.02526855
249.76161194 1311.00000000 92.37757874
252.04254150 1311.00000000 92.37757874
254.32347107 1311.00000000 92.37757874
256.60440063 1311.00000000 92.37757874
259.87268066 1316.00000000 92.72989655
262.16232300 1316.00000000 92.72989655
265.45669556 1321.00000000 93.08221436
267.75500488 1321.00000000 93.08221436
270.05334473 1321.00000000 93.08221436
272.35168457 1321.00000000 93.08221436
275.68954468 1326.00000000 93.43453217
277.99658203 1326.00000000 93.43453217
280.30358887 1326.00000000 93.43453217
283.67626953 1331.00000000 93.78684998
285.99200439 1331.00000000 93.78684998
288.30773926 1331.00000000 93.78684998
289.53170776 1326.00000000 93.43453217
292.93917847 1331.00000000 93.78684998
296.36404419 1336.00000000 94.13916779
298.68847656 1336.00000000 94.13916779
301.01290894 1336.00000000 94.13916779
304.69961548 1342.00000000 94.56195068
307.03448486 1342.00000000 94.56195068
309.36935425 1342.00000000 94.56195068
311.70419312 1342.00000000 94.56195068
315.20910645 1347.00000000 94.91426849
318.73141479 1352.00000000 95.26658630
321.08367920 1352.00000000 95.26658630
324.87130737 1358.00000000 95.68936157
327.23400879 1358.00000000 95.68936157
330.81024170 1363.00000000 96.04167938
333.18164062 1363.00000000 96.04167938
335.55303955 1363.00000000 96.04167938
339.16406250 1368.00000000 96.39399719
341.54415894 1368.00000000 96.39399719
345.43270874 1374.00000000 96.81678009
347.82324219 1374.00000000 96.81678009
350.21377563 1374.00000000 96.81678009
353.88745117 1379.00000000 97.16909790
356.28668213 1379.00000000 97.16909790
358.68591309 1379.00000000 97.16909790
361.08517456 1379.00000000 97.16909790
365.06591797 1385.00000000 97.59188080
367.47558594 1385.00000000 97.59188080
369.88525391 1385.00000000 97.59188080
372.29495239 1385.00000000 97.59188080
-5.65882397 1301.00000000 89.40941620
-3.39529443 1301.00000000 89.40941620
-1.13176477 1301.00000000 89.40941620
1.13176477 1301.00000000 89.40941620
3.39529443 1301.00000000 89.40941620
5.65882397 1301.00000000 89.40941620
7.92235327 1301.00000000 89.40941620
10.18588352 1301.00000000 89.40941620
12.44941235 1301.00000000 89.40941620
14.65639782 1296.00000000 89.06580353
16.91122818 1296.00000000 89.06580353
19.09211540 1291.00000000 88.72218323
21.42088890 1296.00000000 89.06580353
23.58437729 1291.00000000 88.72218323
25.83050919 1291.00000000 88.72218323
28.07663918 1291.00000000 88.72218323
30.32277107 1291.00000000 88.72218323
32.56890106 1291.00000000 88.72218323
34.94987106 1296.00000000 89.06580353
37.06116486 1291.00000000 88.72218323
39.30729675 1291.00000000 88.72218323
41.71436310 1296.00000000 89.06580353
43.96919250 1296.00000000 89.06580353
46.22402191 1296.00000000 89.06580353
48.47885132 1296.00000000 89.06580353
50.73368454 1296.00000000 89.06580353
52.98851395 1296.00000000 89.06580353
55.24334335 1296.00000000 89.06580353
57.49817276 1296.00000000 89.06580353
59.75300598 1296.00000000 89.06580353
61.76860809 1291.00000000 88.72218323
64.51058960 1301.00000000 89.40941620
66.77412415 1301.00000000 89.40941620
68.50700378 1291.00000000 88.72218323
71.02716064 1296.00000000 89.06580353
72.99925995 1291.00000000 88.72218323
75.24539185 1291.00000000 88.72218323
77.49152374 1291.00000000 88.72218323
79.73765564 1291.00000000 88.72218323
82.30130768 1296.00000000 89.06580353
84.55613708 1296.00000000 89.06580353
86.81096649 1296.00000000 89.06580353
89.06580353 1296.00000000 89.06580353
91.67295074 1301.00000000 89.40941620
93.93647766 1301.00000000 89.40941620
96.20000458 1301.00000000 89.40941620
98.46353912 1301.00000000 89.40941620
100.72706604 1301.00000000 89.40941620
102.99059296 1301.00000000 89.40941620
105.25412750 1301.00000000 89.40941620
107.51765442 1301.00000000 89.40941620
109.35927582 1296.00000000 89.06580353
111.61410522 1296.00000000 89.06580353
114.30824280 1301.00000000 89.40941620
116.12376404 1296.00000000 89.06580353
118.37859344 1296.00000000 89.06580353
120.63342285 1296.00000000 89.06580353
122.88825226 1296.00000000 89.06580353
124.66027832 1291.00000000 88.72218323
127.39791870 1296.00000000 89.06580353
129.15254211 1291.00000000 88.72218323
131.39868164 1291.00000000 88.72218323
134.68000793 1301.00000000 89.40941620
135.89093018 1291.00000000 88.72218323
138.13706970 1291.00000000 88.72218323
140.92689514 1296.00000000 89.06580353
143.18173218 1296.00000000 89.06580353
145.43655396 1296.00000000 89.06580353
147.69139099 1296.00000000 89.06580353
149.94621277 1296.00000000 89.06580353
152.20104980 1296.00000000 89.06580353
155.05177307 1301.00000000 89.40941620
157.31530762 1301.00000000 89.40941620
159.57884216 1301.00000000 89.40941620
161.84236145 1301.00000000 89.40941620
164.10589600 1301.00000000 89.40941620
166.36943054 1301.00000000 89.40941620
168.63294983 1301.00000000 89.40941620
170.89648438 1301.00000000 89.40941620
173.16001892 1301.00000000 89.40941620
175.42353821 1301.00000000 89.40941620
177.68707275 1301.00000000 89.40941620
179.25901794 1296.00000000 89.06580353
181.51383972 1296.00000000 89.06580353
183.76867676 1296.00000000 89.06580353
186.02351379 1296.00000000 89.06580353
188.27833557 1296.00000000 89.06580353
191.26824951 1301.00000000 89.40941620
193.53178406 1301.00000000 89.40941620
195.79530334 1301.00000000 89.40941620
198.05883789 1301.00000000 89.40941620
200.32237244 1301.00000000 89.40941620
202.58589172 1301.00000000 89.40941620
205.63670349 1306.00000000 89.75303650
207.90893555 1306.00000000 89.75303650
210.18116760 1306.00000000 89.75303650
212.45338440 1306.00000000 89.75303650
214.72561646 1306.00000000 89.75303650
215.33630371 1296.00000000 89.06580353
218.43060303 1301.00000000 89.40941620
220.69413757 1301.00000000 89.40941620
222.95765686 1301.00000000 89.40941620
225.22119141 1301.00000000 89.40941620
227.48472595 1301.00000000 89.40941620
229.74824524 1301.00000000 89.40941620
232.90344238 1306.00000000 89.75303650
235.17567444 1306.00000000 89.75303650
237.44790649 1306.00000000 89.75303650
239.72013855 1306.00000000 89.75303650
241.06590271 1301.00000000 89.40941620
244.26458740 1306.00000000 89.75303650
246.53681946 1306.00000000 89.75303650
248.80905151 1306.00000000 89.75303650
251.08128357 1306.00000000 89.75303650
254.32347107 1311.00000000 90.09665680
256.60440063 1311.00000000 90.09665680
258.88531494 1311.00000000 90.09665680
262.16232300 1316.00000000 90.44026947
264.45193481 1316.00000000 90.44026947
267.75500488 1321.00000000 90.78388977
270.05334473 1321.00000000 90.78388977
272.35168457 1321.00000000 90.78388977
275.68954468 1326.00000000 91.12751007
277.99658203 1326.00000000 91.12751007
281.36056519 1331.00000000 91.47112274
283.67626953 1331.00000000 91.47112274
285.99200439 1331.00000000 91.47112274
289.39077759 1336.00000000 91.81474304
290.62344360 1331.00000000 91.47112274
294.03961182 1336.00000000 91.81474304
296.36404419 1336.00000000 91.81474304
300.02987671 1342.00000000 92.22708893
301.01290894 1336.00000000 91.81474304
304.69961548 1342.00000000 92.22708893
307.03448486 1342.00000000 92.22708893
310.52197266 1347.00000000 92.57070160
312.86553955 1347.00000000 92.57070160
315.20910645 1347.00000000 92.57070160
318.73141479 1352.00000000 92.91432190
322.50860596 1358.00000000 93.32666016
324.87130737 1358.00000000 93.32666016
327.23400879 1358.00000000 93.32666016
330.81024170 1363.00000000 93.67028046
333.18164062 1363.00000000 93.67028046
336.78396606 1368.00000000 94.01390076
339.16406250 1368.00000000 94.01390076
341.54415894 1368.00000000 94.01390076
345.43270874 1374.00000000 94.42623901
347.82324219 1374.00000000 94.42623901
350.21377563 1374.00000000 94.42623901
353.88745117 1379.00000000 94.76985931
356.28668213 1379.00000000 94.76985931
360.24655151 1385.00000000 95.18219757
362.65625000 1385.00000000 95.18219757
365.06591797 1385.00000000 95.18219757
365.88363647 1379.00000000 94.76985931
368.28286743 1379.00000000 94.76985931
-5.65882397 1301.00000000 87.14588928
-3.39529443 1301.00000000 87.14588928
-1.13176477 1301.00000000 87.14588928
1.13176477 1301.00000000 87.14588928
3.39529443 1301.00000000 87.14588928
5.65882397 1301.00000000 87.14588928
7.92235327 1301.00000000 87.14588928
10.18588352 1301.00000000 87.14588928
12.40156746 1296.00000000 86.81096649
14.59985256 1291.00000000 86.47605133
16.84598351 1291.00000000 86.47605133
19.09211540 1291.00000000 86.47605133
21.33824539 1291.00000000 86.47605133
23.58437729 1291.00000000 86.47605133
25.83050919 1291.00000000 86.47605133
28.07663918 1291.00000000 86.47605133
30.32277107 1291.00000000 86.47605133
32.56890106 1291.00000000 86.47605133
34.81503296 1291.00000000 86.47605133
37.06116486 1291.00000000 86.47605133
39.30729675 1291.00000000 86.47605133
41.55342865 1291.00000000 86.47605133
43.79955673 1291.00000000 86.47605133
46.04568863 1291.00000000 86.47605133
48.29182053 1291.00000000 86.47605133
50.53795242 1291.00000000 86.47605133
52.78408432 1291.00000000 86.47605133
55.03021240 1291.00000000 86.47605133
57.27634430 1291.00000000 86.47605133
59.52247620 1291.00000000 86.47605133
61.57722473 1287.00000000 86.20811462
63.81639862 1287.00000000 86.20811462
66.05557251 1287.00000000 86.20811462
68.29473877 1287.00000000 86.20811462
70.75313568 1291.00000000 86.47605133
72.77308655 1287.00000000 86.20811462
75.01225281 1287.00000000 86.20811462
77.49152374 1291.00000000 86.47605133
79.49060059 1287.00000000 86.20811462
81.98378754 1291.00000000 86.47605133
84.22991943 1291.00000000 86.47605133
86.47605133 1291.00000000 86.47605133
88.72218323 1291.00000000 86.47605133
91.32063293 1296.00000000 86.81096649
93.57546234 1296.00000000 86.81096649
95.83029175 1296.00000000 86.81096649
98.08512115 1296.00000000 86.81096649
99.95283508 1291.00000000 86.47605133
102.59477997 1296.00000000 86.81096649
104.84960938 1296.00000000 86.81096649
106.69123077 1291.00000000 86.47605133
109.35927582 1296.00000000 86.81096649
111.61410522 1296.00000000 86.81096649
113.86893463 1296.00000000 86.81096649
116.12376404 1296.00000000 86.81096649
117.92189026 1291.00000000 86.47605133
120.16802216 1291.00000000 86.47605133
122.41414642 1291.00000000 86.47605133
124.27404022 1287.00000000 86.20811462
126.51320648 1287.00000000 86.20811462
128.75238037 1287.00000000 86.20811462
130.99154663 1287.00000000 86.20811462
133.23072815 1287.00000000 86.20811462
135.46989441 1287.00000000 86.20811462
138.13706970 1291.00000000 86.47605133
140.38319397 1291.00000000 86.47605133
142.62933350 1291.00000000 86.47605133
144.87545776 1291.00000000 86.47605133
147.12159729 1291.00000000 86.47605133
149.36772156 1291.00000000 86.47605133
152.20104980 1296.00000000 86.81096649
155.05177307 1301.00000000 87.14588928
156.71070862 1296.00000000 86.81096649
159.57884216 1301.00000000 87.14588928
161.84236145 1301.00000000 87.14588928
164.10589600 1301.00000000 87.14588928
166.36943054 1301.00000000 87.14588928
168.63294983 1301.00000000 87.14588928
170.89648438 1301.00000000 87.14588928
173.16001892 1301.00000000 87.14588928
174.74935913 1296.00000000 86.81096649
176.32130432 1291.00000000 86.47605133
178.56742859 1291.00000000 86.47605133
180.81356812 1291.00000000 86.47605133
183.05969238 1291.00000000 86.47605133
185.30581665 1291.00000000 86.47605133
188.27833557 1296.00000000 86.81096649
190.53317261 1296.00000000 86.81096649
192.78799438 1296.00000000 86.81096649
195.79530334 1301.00000000 87.14588928
197.29765320 1296.00000000 86.81096649
199.55249023 1296.00000000 86.81096649
202.58589172 1301.00000000 87.14588928
204.84942627 1301.00000000 87.14588928
207.11296082 1301.00000000 87.14588928
209.37648010 1301.00000000 87.14588928
211.64001465 1301.00000000 87.14588928
213.90354919 1301.00000000 87.14588928
214.50552368 1291.00000000 86.47605133
218.43060303 1301.00000000 87.14588928
221.54229736 1306.00000000 87.48080444
222.10079956 1296.00000000 86.81096649
224.35562134 1296.00000000 86.81096649
227.48472595 1301.00000000 87.14588928
229.74824524 1301.00000000 87.14588928
232.01177979 1301.00000000 87.14588928
234.27531433 1301.00000000 87.14588928
236.53883362 1301.00000000 87.14588928
239.72013855 1306.00000000 87.48080444
241.99237061 1306.00000000 87.48080444
244.26458740 1306.00000000 87.48080444
246.53681946 1306.00000000 87.48080444
248.80905151 1306.00000000 87.48080444
251.08128357 1306.00000000 87.48080444
254.32347107 1311.00000000 87.81572723
256.60440063 1311.00000000 87.81572723
258.88531494 1311.00000000 87.81572723
262.16232300 1316.00000000 88.15064240
264.45193481 1316.00000000 88.15064240
267.75500488 1321.00000000 88.48556519
270.05334473 1321.00000000 88.48556519
272.35168457 1321.00000000 88.48556519
275.68954468 1326.00000000 88.82048035
277.99658203 1326.00000000 88.82048035
281.36056519 1331.00000000 89.15540314
284.74194336 1336.00000000 89.49031830
287.06634521 1336.00000000 89.49031830
289.39077759 1336.00000000 89.49031830
291.71520996 1336.00000000 89.49031830
294.03961182 1336.00000000 89.49031830
296.36404419 1336.00000000 89.49031830
300.02987671 1342.00000000 89.89221954
302.36474609 1342.00000000 89.89221954
304.69961548 1342.00000000 89.89221954
307.03448486 1342.00000000 89.89221954
310.52197266 1347.00000000 90.22714233
312.86553955 1347.00000000 90.22714233
316.37915039 1352.00000000 90.56205750
318.73141479 1352.00000000 90.56205750
322.50860596 1358.00000000 90.96396637
324.87130737 1358.00000000 90.96396637
328.43884277 1363.00000000 91.29888153
330.81024170 1363.00000000 91.29888153
333.18164062 1363.00000000 91.29888153
336.78396606 1368.00000000 91.63380432
339.16406250 1368.00000000 91.63380432
341.54415894 1368.00000000 91.63380432
346.68972778 1379.00000000 92.37062073
349.08898926 1379.00000000 92.37062073
351.48822021 1379.00000000 92.37062073
353.88745117 1379.00000000 92.37062073
357.83688354 1385.00000000 92.77252197
360.24655151 1385.00000000 92.77252197
362.65625000 1385.00000000 92.77252197
365.06591797 1385.00000000 92.77252197
365.88363647 1379.00000000 92.37062073
368.28286743 1379.00000000 92.37062073
-5.68057203 1306.00000000 85.20858002
-3.40834308 1306.00000000 85.20858002
-1.13176477 1301.00000000 84.88236237
1.13176477 1301.00000000 84.88236237
3.39529443 1301.00000000 84.88236237
5.65882397 1301.00000000 84.88236237
7.92235327 1301.00000000 84.88236237
10.18588352 1301.00000000 84.88236237
12.40156746 1296.00000000 84.55613708
14.59985256 1291.00000000 84.22991943
16.84598351 1291.00000000 84.22991943
19.03296089 1287.00000000 83.96894073
21.33824539 1291.00000000 84.22991943
23.51130486 1287.00000000 83.96894073
25.75047684 1287.00000000 83.96894073
27.98964882 1287.00000000 83.96894073
30.22881889 1287.00000000 83.96894073
32.46799088 1287.00000000 83.96894073
34.70716476 1287.00000000 83.96894073
36.94633484 1287.00000000 83.96894073
39.18550873 1287.00000000 83.96894073
41.42467880 1287.00000000 83.96894073
43.66384888 1287.00000000 83.96894073
45.90302277 1287.00000000 83.96894073
48.14219284 1287.00000000 83.96894073
50.38136673 1287.00000000 83.96894073
52.62053680 1287.00000000 83.96894073
54.85971069 1287.00000000 83.96894073
57.09888077 1287.00000000 83.96894073
59.33805466 1287.00000000 83.96894073
61.57722473 1287.00000000 83.96894073
63.81639862 1287.00000000 83.96894073
66.05557251 1287.00000000 83.96894073
68.29473877 1287.00000000 83.96894073
70.53391266 1287.00000000 83.96894073
72.77308655 1287.00000000 83.96894073
75.01225281 1287.00000000 83.96894073
77.25142670 1287.00000000 83.96894073
79.49060059 1287.00000000 83.96894073
81.72977448 1287.00000000 83.96894073
83.96894073 1287.00000000 83.96894073
86.20811462 1287.00000000 83.96894073
88.44728851 1287.00000000 83.96894073
90.96831512 1291.00000000 84.22991943
93.21444702 1291.00000000 84.22991943
95.16480255 1287.00000000 83.96894073
97.02555847 1282.00000000 83.64272308
99.25603485 1282.00000000 83.64272308
101.48650360 1282.00000000 83.64272308
104.12149048 1287.00000000 83.96894073
106.36066437 1287.00000000 83.96894073
108.59983063 1287.00000000 83.96894073
110.83900452 1287.00000000 83.96894073
113.42962646 1291.00000000 84.22991943
115.31735229 1287.00000000 83.96894073
117.55651855 1287.00000000 83.96894073
119.79569244 1287.00000000 83.96894073
122.03486633 1287.00000000 83.96894073
124.27404022 1287.00000000 83.96894073
126.51320648 1287.00000000 83.96894073
128.75238037 1287.00000000 83.96894073
130.99154663 1287.00000000 83.96894073
133.23072815 1287.00000000 83.96894073
135.46989441 1287.00000000 83.96894073
137.70906067 1287.00000000 83.96894073
139.94824219 1287.00000000 83.96894073
142.18740845 1287.00000000 83.96894073
144.42658997 1287.00000000 83.96894073
147.12159729 1291.00000000 84.22991943
149.36772156 1291.00000000 84.22991943
152.20104980 1296.00000000 84.55613708
154.45588684 1296.00000000 84.55613708
156.71070862 1296.00000000 84.55613708
158.96554565 1296.00000000 84.55613708
161.22036743 1296.00000000 84.55613708
163.47520447 1296.00000000 84.55613708
165.73002625 1296.00000000 84.55613708
167.98486328 1296.00000000 84.55613708
170.23970032 1296.00000000 84.55613708
172.49452209 1296.00000000 84.55613708
174.74935913 1296.00000000 84.55613708
176.32130432 1291.00000000 84.22991943
178.56742859 1291.00000000 84.22991943
180.81356812 1291.00000000 84.22991943
182.49250793 1287.00000000 83.96894073
184.73167419 1287.00000000 83.96894073
187.55195618 1291.00000000 84.22991943
189.79808044 1291.00000000 84.22991943
192.04421997 1291.00000000 84.22991943
195.04283142 1296.00000000 84.55613708
197.29765320 1296.00000000 84.55613708
199.55249023 1296.00000000 84.55613708
201.02874756 1291.00000000 84.22991943
203.27487183 1291.00000000 84.22991943
207.11296082 1301.00000000 84.88236237
209.37648010 1301.00000000 84.88236237
210.01325989 1291.00000000 84.22991943
212.25939941 1291.00000000 84.22991943
214.50552368 1291.00000000 84.22991943
216.75166321 1291.00000000 84.22991943
220.69413757 1301.00000000 84.88236237
222.95765686 1301.00000000 84.88236237
224.35562134 1296.00000000 84.55613708
226.61045837 1296.00000000 84.55613708
229.74824524 1301.00000000 84.88236237
232.01177979 1301.00000000 84.88236237
234.27531433 1301.00000000 84.88236237
237.44790649 1306.00000000 85.20858002
239.72013855 1306.00000000 85.20858002
241.99237061 1306.00000000 85.20858002
244.26458740 1306.00000000 85.20858002
246.53681946 1306.00000000 85.20858002
249.76161194 1311.00000000 85.53479767
252.04254150 1311.00000000 85.53479767
254.32347107 1311.00000000 85.53479767
256.60440063 1311.00000000 85.53479767
259.87268066 1316.00000000 85.86101532
263.15835571 1321.00000000 86.18724060
265.45669556 1321.00000000 86.18724060
267.75500488 1321.00000000 86.18724060
270.05334473 1321.00000000 86.18724060
272.35168457 1321.00000000 86.18724060
275.68954468 1326.00000000 86.51345825
279.04483032 1331.00000000 86.83967590
281.36056519 1331.00000000 86.83967590
284.74194336 1336.00000000 87.16589355
287.06634521 1336.00000000 87.16589355
290.69042969 1342.00000000 87.55735779
291.71520996 1336.00000000 87.16589355
294.03961182 1336.00000000 87.16589355
297.69503784 1342.00000000 87.55735779
300.02987671 1342.00000000 87.55735779
302.36474609 1342.00000000 87.55735779
304.69961548 1342.00000000 87.55735779
308.17840576 1347.00000000 87.88358307
310.52197266 1347.00000000 87.88358307
312.86553955 1347.00000000 87.88358307
317.78320312 1358.00000000 88.60126495
320.14590454 1358.00000000 88.60126495
323.69604492 1363.00000000 88.92748260
326.06744385 1363.00000000 88.92748260
328.43884277 1363.00000000 88.92748260
330.81024170 1363.00000000 88.92748260
334.40386963 1368.00000000 89.25370026
336.78396606 1368.00000000 89.25370026
340.65164185 1374.00000000 89.64516449
343.04217529 1374.00000000 89.64516449
346.68972778 1379.00000000 89.97138214
349.08898926 1379.00000000 89.97138214
351.48822021 1379.00000000 89.97138214
355.42721558 1385.00000000 90.36284637
357.83688354 1385.00000000 90.36284637
360.24655151 1385.00000000 90.36284637
362.65625000 1385.00000000 90.36284637
365.06591797 1385.00000000 90.36284637
367.47558594 1385.00000000 90.36284637
369.88525391 1385.00000000 90.36284637
-5.68057203 1306.00000000 82.93634796
-3.40834308 1306.00000000 82.93634796
-1.13611436 1306.00000000 82.93634796
1.13611436 1306.00000000 82.93634796
3.39529443 1301.00000000 82.61882782
5.65882397 1301.00000000 82.61882782
7.92235327 1301.00000000 82.61882782
10.14673710 1296.00000000 82.30130768
12.35372162 1291.00000000 81.98378754
14.55461693 1287.00000000 81.72977448
16.79378891 1287.00000000 81.72977448
19.03296089 1287.00000000 81.72977448
21.27213287 1287.00000000 81.72977448
23.51130486 1287.00000000 81.72977448
25.75047684 1287.00000000 81.72977448
27.98964882 1287.00000000 81.72977448
30.22881889 1287.00000000 81.72977448
32.46799088 1287.00000000 81.72977448
34.70716476 1287.00000000 81.72977448
36.80279922 1282.00000000 81.41225433
39.03327179 1282.00000000 81.41225433
41.42467880 1287.00000000 81.72977448
43.66384888 1287.00000000 81.72977448
45.90302277 1287.00000000 81.72977448
48.14219284 1287.00000000 81.72977448
50.38136673 1287.00000000 81.72977448
52.62053680 1287.00000000 81.72977448
54.85971069 1287.00000000 81.72977448
57.09888077 1287.00000000 81.72977448
59.33805466 1287.00000000 81.72977448
61.57722473 1287.00000000 81.72977448
63.56847000 1282.00000000 81.41225433
65.79894257 1282.00000000 81.41225433
68.02941895 1282.00000000 81.41225433
70.25988770 1282.00000000 81.41225433
72.49036407 1282.00000000 81.41225433
74.42941284 1277.00000000 81.09473419
76.65118408 1277.00000000 81.09473419
78.87295532 1277.00000000 81.09473419
81.09473419 1277.00000000 81.09473419
83.64272308 1282.00000000 81.41225433
85.87319946 1282.00000000 81.41225433
88.10366821 1282.00000000 81.41225433
89.98182678 1277.00000000 81.09473419
92.20359802 1277.00000000 81.09473419
94.42536926 1277.00000000 81.09473419
97.02555847 1282.00000000 81.41225433
99.25603485 1282.00000000 81.41225433
101.48650360 1282.00000000 81.41225433
103.71697998 1282.00000000 81.41225433
106.36066437 1287.00000000 81.72977448
108.59983063 1287.00000000 81.72977448
110.83900452 1287.00000000 81.72977448
113.07817841 1287.00000000 81.72977448
115.31735229 1287.00000000 81.72977448
117.55651855 1287.00000000 81.72977448
119.79569244 1287.00000000 81.72977448
121.56076050 1282.00000000 81.41225433
123.79122925 1282.00000000 81.41225433
126.02170563 1282.00000000 81.41225433
128.25218201 1282.00000000 81.41225433
130.48265076 1282.00000000 81.41225433
132.71311951 1282.00000000 81.41225433
134.94358826 1282.00000000 81.41225433
137.17407227 1282.00000000 81.41225433
139.94824219 1287.00000000 81.72977448
141.63500977 1282.00000000 81.41225433
144.42658997 1287.00000000 81.72977448
146.66575623 1287.00000000 81.72977448
148.90492249 1287.00000000 81.72977448
151.14410400 1287.00000000 81.72977448
153.38327026 1287.00000000 81.72977448
155.62243652 1287.00000000 81.72977448
157.86161804 1287.00000000 81.72977448
161.22036743 1296.00000000 82.30130768
163.47520447 1296.00000000 82.30130768
165.73002625 1296.00000000 82.30130768
167.33677673 1291.00000000 81.98378754
169.58290100 1291.00000000 81.98378754
171.82904053 1291.00000000 81.98378754
174.07516479 1291.00000000 81.98378754
175.77499390 1287.00000000 81.72977448
178.01416016 1287.00000000 81.72977448
180.25332642 1287.00000000 81.72977448
182.49250793 1287.00000000 81.72977448
184.73167419 1287.00000000 81.72977448
186.97085571 1287.00000000 81.72977448
189.79808044 1291.00000000 81.98378754
192.04421997 1291.00000000 81.98378754
194.29034424 1291.00000000 81.98378754
196.53648376 1291.00000000 81.98378754
198.78260803 1291.00000000 81.98378754
201.02874756 1291.00000000 81.98378754
203.27487183 1291.00000000 81.98378754
205.52099609 1291.00000000 81.98378754
207.76713562 1291.00000000 81.98378754
209.36256409 1287.00000000 81.72977448
211.60174561 1287.00000000 81.72977448
213.84091187 1287.00000000 81.72977448
216.08007812 1287.00000000 81.72977448
218.99778748 1291.00000000 81.98378754
221.24392700 1291.00000000 81.98378754
224.35562134 1296.00000000 82.30130768
226.61045837 1296.00000000 82.30130768
229.74824524 1301.00000000 82.61882782
232.01177979 1301.00000000 82.61882782
234.27531433 1301.00000000 82.61882782
237.44790649 1306.00000000 82.93634796
239.72013855 1306.00000000 82.93634796
241.99237061 1306.00000000 82.93634796
244.26458740 1306.00000000 82.93634796
246.53681946 1306.00000000 82.93634796
249.76161194 1311.00000000 83.25386810
252.04254150 1311.00000000 83.25386810
254.32347107 1311.00000000 83.25386810
256.60440063 1311.00000000 83.25386810
259.87268066 1316.00000000 83.57138824
263.15835571 1321.00000000 83.88890839
265.45669556 1321.00000000 83.88890839
267.75500488 1321.00000000 83.88890839
270.05334473 1321.00000000 83.88890839
273.38253784 1326.00000000 84.20642853
275.68954468 1326.00000000 84.20642853
279.04483032 1331.00000000 84.52394867
281.36056519 1331.00000000 84.52394867
284.74194336 1336.00000000 84.84147644
288.35556030 1342.00000000 85.22249603
290.69042969 1342.00000000 85.22249603
291.71520996 1336.00000000 84.84147644
295.36016846 1342.00000000 85.22249603
297.69503784 1342.00000000 85.22249603
300.02987671 1342.00000000 85.22249603
302.36474609 1342.00000000 85.22249603
305.83486938 1347.00000000 85.54001617
308.17840576 1347.00000000 85.54001617
311.67462158 1352.00000000 85.85753632
314.02688599 1352.00000000 85.85753632
317.78320312 1358.00000000 86.23856354
320.14590454 1358.00000000 86.23856354
323.69604492 1363.00000000 86.55608368
326.06744385 1363.00000000 86.55608368
328.43884277 1363.00000000 86.55608368
330.81024170 1363.00000000 86.55608368
334.40386963 1368.00000000 86.87360382
336.78396606 1368.00000000 86.87360382
339.16406250 1368.00000000 86.87360382
341.54415894 1368.00000000 86.87360382
346.68972778 1379.00000000 87.57215118
349.08898926 1379.00000000 87.57215118
353.01751709 1385.00000000 87.95317078
355.42721558 1385.00000000 87.95317078
357.83688354 1385.00000000 87.95317078
360.24655151 1385.00000000 87.95317078
362.65625000 1385.00000000 87.95317078
365.06591797 1385.00000000 87.95317078
367.47558594 1385.00000000 87.95317078
369.88525391 1385.00000000 87.95317078
-5.74581575 1321.00000000 81.59058380
-3.42139196 1311.00000000 80.97293854
-1.13611436 1306.00000000 80.66412354
1.13611436 1306.00000000 80.66412354
3.40834308 1306.00000000 80.66412354
5.65882397 1301.00000000 80.35530090
7.92235327 1301.00000000 80.35530090
10.14673710 1296.00000000 80.04647827
12.35372162 1291.00000000 79.73765564
14.55461693 1287.00000000 79.49060059
16.79378891 1287.00000000 79.49060059
18.95901680 1282.00000000 79.18177795
21.18948936 1282.00000000 79.18177795
23.41996193 1282.00000000 79.18177795
25.65043449 1282.00000000 79.18177795
27.88090897 1282.00000000 79.18177795
30.11138153 1282.00000000 79.18177795
32.34185410 1282.00000000 79.18177795
34.57232666 1282.00000000 79.18177795
36.80279922 1282.00000000 79.18177795
39.03327179 1282.00000000 79.18177795
41.26374435 1282.00000000 79.18177795
43.49421692 1282.00000000 79.18177795
45.72468948 1282.00000000 79.18177795
47.95516205 1282.00000000 79.18177795
50.18563461 1282.00000000 79.18177795
52.41610718 1282.00000000 79.18177795
54.64657974 1282.00000000 79.18177795
56.87705231 1282.00000000 79.18177795
59.10752487 1282.00000000 79.18177795
61.33799744 1282.00000000 79.18177795
63.32054520 1277.00000000 78.87295532
65.54232025 1277.00000000 78.87295532
67.76409149 1277.00000000 78.87295532
69.98586273 1277.00000000 78.87295532
72.20763397 1277.00000000 78.87295532
74.42941284 1277.00000000 78.87295532
76.65118408 1277.00000000 78.87295532
78.87295532 1277.00000000 78.87295532
80.77721405 1272.00000000 78.56413269
83.31650543 1277.00000000 78.87295532
85.53827667 1277.00000000 78.87295532
87.41643524 1272.00000000 78.56413269
89.62950897 1272.00000000 78.56413269
91.84258270 1272.00000000 78.56413269
94.05565643 1272.00000000 78.56413269
96.26873016 1272.00000000 78.56413269
98.86891937 1277.00000000 78.87295532
101.09069061 1277.00000000 78.87295532
103.31246185 1277.00000000 78.87295532
105.94744873 1282.00000000 79.18177795
108.17792511 1282.00000000 79.18177795
110.40839386 1282.00000000 79.18177795
112.63887024 1282.00000000 79.18177795
114.86933899 1282.00000000 79.18177795
117.09981537 1282.00000000 79.18177795
119.33028412 1282.00000000 79.18177795
121.56076050 1282.00000000 79.18177795
123.79122925 1282.00000000 79.18177795
126.02170563 1282.00000000 79.18177795
128.25218201 1282.00000000 79.18177795
130.48265076 1282.00000000 79.18177795
132.71311951 1282.00000000 79.18177795
134.94358826 1282.00000000 79.18177795
137.17407227 1282.00000000 79.18177795
139.40454102 1282.00000000 79.18177795
141.63500977 1282.00000000 79.18177795
143.86547852 1282.00000000 79.18177795
146.09596252 1282.00000000 79.18177795
148.32643127 1282.00000000 79.18177795
150.55690002 1282.00000000 79.18177795
152.78736877 1282.00000000 79.18177795
155.62243652 1287.00000000 79.49060059
157.86161804 1287.00000000 79.49060059
160.10078430 1287.00000000 79.49060059
162.33995056 1287.00000000 79.49060059
164.57913208 1287.00000000 79.49060059
166.81829834 1287.00000000 79.49060059
169.05747986 1287.00000000 79.49060059
171.29664612 1287.00000000 79.49060059
173.53581238 1287.00000000 79.49060059
175.77499390 1287.00000000 79.49060059
178.01416016 1287.00000000 79.49060059
180.25332642 1287.00000000 79.49060059
182.49250793 1287.00000000 79.49060059
184.73167419 1287.00000000 79.49060059
186.97085571 1287.00000000 79.49060059
189.21002197 1287.00000000 79.49060059
191.44918823 1287.00000000 79.49060059
194.29034424 1291.00000000 79.73765564
196.53648376 1291.00000000 79.73765564
198.16670227 1287.00000000 79.49060059
200.40588379 1287.00000000 79.49060059
202.64505005 1287.00000000 79.49060059
204.88421631 1287.00000000 79.49060059
207.12339783 1287.00000000 79.49060059
209.36256409 1287.00000000 79.49060059
211.60174561 1287.00000000 79.49060059
213.84091187 1287.00000000 79.49060059
216.08007812 1287.00000000 79.49060059
218.99778748 1291.00000000 79.73765564
221.24392700 1291.00000000 79.73765564
224.35562134 1296.00000000 80.04647827
226.61045837 1296.00000000 80.04647827
229.74824524 1301.00000000 80.35530090
232.01177979 1301.00000000 80.35530090
235.17567444 1306.00000000 80.66412354
237.44790649 1306.00000000 80.66412354
239.72013855 1306.00000000 80.66412354
241.99237061 1306.00000000 80.66412354
244.26458740 1306.00000000 80.66412354
247.48068237 1311.00000000 80.97293854
249.76161194 1311.00000000 80.97293854
252.04254150 1311.00000000 80.97293854
254.32347107 1311.00000000 80.97293854
257.58306885 1316.00000000 81.28176117
260.86004639 1321.00000000 81.59058380
263.15835571 1321.00000000 81.59058380
265.45669556 1321.00000000 81.59058380
268.76846313 1326.00000000 81.89940643
271.07550049 1326.00000000 81.89940643
273.38253784 1326.00000000 81.89940643
276.72909546 1331.00000000 82.20822906
279.04483032 1331.00000000 82.20822906
282.41751099 1336.00000000 82.51705170
286.02072144 1342.00000000 82.88763428
288.35556030 1342.00000000 82.88763428
291.77349854 1347.00000000 83.19645691
293.02529907 1342.00000000 82.88763428
295.36016846 1342.00000000 82.88763428
297.69503784 1342.00000000 82.88763428
300.02987671 1342.00000000 82.88763428
303.49130249 1347.00000000 83.19645691
306.97009277 1352.00000000 83.50527954
309.32235718 1352.00000000 83.50527954
313.05780029 1358.00000000 83.87586212
315.42050171 1358.00000000 83.87586212
318.95324707 1363.00000000 84.18468475
321.32464600 1363.00000000 84.18468475
323.69604492 1363.00000000 84.18468475
326.06744385 1363.00000000 84.18468475
328.43884277 1363.00000000 84.18468475
332.02377319 1368.00000000 84.49350739
334.40386963 1368.00000000 84.49350739
336.78396606 1368.00000000 84.49350739
339.16406250 1368.00000000 84.49350739
344.29049683 1379.00000000 85.17291260
346.68972778 1379.00000000 85.17291260
350.60784912 1385.00000000 85.54349518
353.01751709 1385.00000000 85.54349518
355.42721558 1385.00000000 85.54349518
359.12872314 1390.00000000 85.85231781
360.24655151 1385.00000000 85.54349518
362.65625000 1385.00000000 85.54349518
365.06591797 1385.00000000 85.54349518
