0.0 0.0 0.0
0.0 0.0 2.0
0.0 2.0 0.0
0.0 2.0 2.0
2.0 0.0 0.0
2.0 0.0 2.0
2.0 2.0 0.0
2.0 2.0 2.0
0.9580490589141846 -0.08429491519927979 5.46409797668457
0.9580490589141846 -0.13485074043273926 4.933948516845703
0.9580490589141846 -0.20876038074493408 4.564531326293945
0.9580490589141846 -0.26511895656585693 4.78867244720459
0.9580490589141846 0.17884397506713867 4.2322235107421875
0.9580490589141846 0.3224881887435913 5.795596122741699
0.9580490589141846 0.6841531991958618 5.91635799407959
0.9580490589141846 0.9897249341011047 5.874996185302734
0.9580490589141846 1.1518710851669312 5.775054931640625
0.9580490589141846 1.3682113885879517 5.594296455383301
0.9580490589141846 1.4602084159851074 5.018402099609375
0.9580490589141846 1.3906084299087524 4.559113502502441
0.9403578639030457 2.034090042114258 3.2444164752960205
0.9580490589141846 2.189180850982666 3.056243896484375
2.057264804840088 1.3514163494110107 2.2612454891204834
0.9580490589141846 0.1381378173828125 2.7806193828582764
1.78423273563385 1.4877614974975586 2.0346243381500244
0.9580490589141846 0.31983184814453125 2.353510618209839
1.687347650527954 0.727272629737854 2.2245736122131348
0.9580490589141846 1.9865479469299316 2.5273492336273193
1.7518409490585327 1.5261954069137573 2.2478761672973633
1.6764211654663086 0.4276740550994873 2.003565549850464
2.0877084732055664 1.4223233461380005 2.0086517333984375
1.8202974796295166 1.1041685342788696 4.928753852844238
1.7762333154678345 1.135610580444336 4.475587844848633
1.7352359294891357 1.0005064010620117 5.652622222900391
2.143604278564453 1.3537373542785645 3.0690860748291016
1.855737328529358 1.1083178520202637 4.731785774230957
1.695074200630188 0.810638427734375 2.972754716873169
1.5846432447433472 0.7334998846054077 4.293030738830566
1.6631946563720703 0.686104416847229 4.6227569580078125
1.6337915658950806 0.6455230712890625 4.89836311340332
1.625948190689087 0.6480269432067871 5.596423149108887
1.3546104431152344 0.6601016521453857 5.752046585083008
1.4366296529769897 0.9922930598258972 5.785844802856445
3.1049845218658447 0.9447557330131531 6.346396446228027
3.0386807918548584 0.5922763347625732 6.278474807739258
2.349226236343384 0.6043510437011719 6.18010139465332
2.4820446968078613 0.9365423917770386 6.299867630004883
1.6756622791290283 0.6322263479232788 5.9933013916015625
1.8119542598724365 0.9644176959991455 6.065091133117676
2.1621193885803223 0.9726310968399048 5.771763801574707
2.0338363647460938 0.6201516389846802 5.666719436645508
1.0778456926345825 1.9771127700805664 3.2288033962249756
1.0857298374176025 2.128815174102783 3.0632100105285645
0.9580490589141846 0.18697261810302734 4.023141860961914
1.842186450958252 1.1747702360153198 4.223082542419434
1.4975556135177612 0.7473483085632324 4.010989189147949
1.2823123931884766 0.299363374710083 3.7366931438446045
1.1964482069015503 0.010797977447509766 3.4104933738708496
1.4726431369781494 0.33562171459198 3.210399627685547
1.7308366298675537 0.7887866497039795 3.521332263946533
1.8441931009292603 1.039581537246704 3.760190963745117
1.2899272441864014 -0.012379646301269531 3.198603391647339
1.6205683946609497 0.5509958267211914 3.7151265144348145
-0.14116668701171875 1.3514163494110107 2.2612454891204834
0.13186538219451904 1.4877614974975586 2.0346243381500244
0.22875046730041504 0.727272629737854 2.2245736122131348
0.16425716876983643 1.5261954069137573 2.2478761672973633
0.23967695236206055 0.4276740550994873 2.003565549850464
-0.17161035537719727 1.4223233461380005 2.0086517333984375
0.09580063819885254 1.1041685342788696 4.928753852844238
0.13986480236053467 1.135610580444336 4.475587844848633
0.18086230754852295 1.0005064010620117 5.652622222900391
-0.22750627994537354 1.3537373542785645 3.0690860748291016
0.06036078929901123 1.1083178520202637 4.731785774230957
0.2210240364074707 0.810638427734375 2.972754716873169
0.331454873085022 0.7334998846054077 4.293030738830566
0.25290346145629883 0.686104416847229 4.6227569580078125
0.2823065519332886 0.6455230712890625 4.89836311340332
0.2901500463485718 0.6480269432067871 5.596423149108887
0.5614877939224243 0.6601016521453857 5.752046585083008
0.47946858406066895 0.9922930598258972 5.785844802856445
-1.1888864040374756 0.9447557330131531 6.346396446228027
-1.1225826740264893 0.5922763347625732 6.278474807739258
-0.43312811851501465 0.6043510437011719 6.18010139465332
-0.5659465789794922 0.9365423917770386 6.299867630004883
0.24043595790863037 0.6322263479232788 5.9933013916015625
0.10414397716522217 0.9644176959991455 6.065091133117676
-0.24602138996124268 0.9726310968399048 5.771763801574707
-0.11773824691772461 0.6201516389846802 5.666719436645508
0.8171066045761108 2.0423247814178467 3.2377700805664062
0.8254304528236389 2.177224636077881 3.077238082885742
0.07391166687011719 1.1747702360153198 4.223082542419434
0.41854262351989746 0.7473483085632324 4.010989189147949
0.6337857842445374 0.299363374710083 3.7366931438446045
0.7196499109268188 0.010797977447509766 3.4104933738708496
0.4434551000595093 0.33562171459198 3.210399627685547
0.18526160717010498 0.7887866497039795 3.521332263946533
0.07190513610839844 1.039581537246704 3.760190963745117
0.6261709928512573 -0.012379646301269531 3.198603391647339
0.295529842376709 0.5509958267211914 3.7151265144348145
1.8342539072036743 1.1058025360107422 4.851186752319336
1.6453707218170166 0.6615042686462402 4.789827346801758
0.08184421062469482 1.1058025360107422 4.851186752319336
0.2707275152206421 0.6615042686462402 4.789827346801758
0.9403578639030457 3.1092569828033447 5.377269744873047
0.9580490589141846 3.2079579830169678 4.535914421081543
1.0778456926345825 3.0522799491882324 5.361656188964844
1.0857298374176025 3.147592067718506 4.542880058288574
0.8171066045761108 3.1174917221069336 5.370623588562012
0.8254304528236389 3.1960017681121826 4.55690860748291
0.9580490589141846 2.282198905944824 3.1142349243164062
1.0857298374176025 2.2218332290649414 3.1212010383605957
0.9403578639030457 2.191631317138672 3.392110824584961
0.8171066045761108 2.1998660564422607 3.3854644298553467
1.0778456926345825 2.1346540451049805 3.376497745513916
0.8254304528236389 2.270242691040039 3.1352293491363525
0.9580490589141846 2.3845198154449463 3.474954128265381
0.9403578639030457 2.1509628295898438 3.690617561340332
1.0778456926345825 2.0939855575561523 3.675004482269287
1.0857298374176025 2.3241539001464844 3.4819202423095703
0.8171066045761108 2.1591975688934326 3.683971405029297
0.8254304528236389 2.372563600540161 3.495948314666748
0.9580490589141846 2.636087417602539 3.5863466262817383
0.9403578639030457 2.297744035720825 3.7956671714782715
1.0778456926345825 2.240767002105713 3.7800540924072266
1.0857298374176025 2.5757217407226562 3.5933127403259277
0.8171066045761108 2.305978775024414 3.7890207767486572
0.8254304528236389 2.624131202697754 3.6073410511016846
0.9580490589141846 2.533820629119873 4.186326026916504
0.9403578639030457 1.8855111598968506 4.680220603942871
1.0778456926345825 1.8285340070724487 4.664607048034668
1.0857298374176025 2.4734549522399902 4.193292617797852
0.8171066045761108 1.8937458992004395 4.673574447631836
0.8254304528236389 2.521864414215088 4.207320213317871
